1795342.66 281487.60 -15.65
1795336.82 281493.06 -15.45
1795330.98 281498.53 -14.86
1795325.14 281504.00 -15.06
1795319.30 281509.46 -15.06
1795313.46 281514.93 -15.29
1795307.62 281520.40 -15.58
1795301.78 281525.86 -15.94
1795295.93 281531.33 -16.34
1795290.09 281536.79 -16.70
1795284.25 281542.26 -16.54
1795278.41 281547.73 -16.01
1795272.57 281553.19 -15.91
1795266.73 281558.66 -16.34
1795260.89 281564.13 -16.60
1795255.05 281569.59 -16.63
1795249.20 281575.06 -17.36
1795243.36 281580.52 -16.83
1795237.52 281585.99 -17.45
1795231.68 281591.46 -16.31
1795225.84 281596.92 -16.08
1795220.00 281602.39 -16.31
1795214.16 281607.85 -15.42
1795208.32 281613.32 -15.42
1795202.47 281618.79 -15.52
1795196.63 281624.25 -15.72
1795190.79 281629.72 -16.50
1795184.95 281635.19 -16.37
1795179.11 281640.65 -17.06
1795173.27 281646.12 -17.13
1795167.43 281651.58 -17.88
1795161.58 281657.05 -18.24
1795155.74 281662.52 -18.57
1795149.90 281667.98 -18.90
1795144.06 281673.45 -18.96
1797965.03 279044.59 -13.19
1797959.19 279050.05 -13.09
1797953.35 279055.52 -12.76
1797947.51 279060.99 -12.47
1797941.67 279066.45 -12.89
1797935.83 279071.92 -13.06
1797929.98 279077.38 -12.93
1797924.14 279082.85 -12.73
1797918.30 279088.32 -12.37
1797912.46 279093.78 -12.34
1797906.62 279099.25 -12.24
1797900.78 279104.71 -12.24
1797894.94 279110.18 -12.63
1797889.10 279115.65 -12.47
1797883.25 279121.11 -12.99
1797877.41 279126.58 -13.16
1797871.57 279132.05 -13.65
1797865.73 279137.51 -13.52
1797859.89 279142.98 -12.96
1797854.05 279148.44 -12.86
1797848.21 279153.91 -13.06
1797842.37 279159.38 -13.35
1797836.52 279164.84 -13.65
1797830.68 279170.31 -14.37
1797824.84 279175.78 -13.91
1797819.00 279181.24 -13.58
1797813.16 279186.71 -12.70
1797807.32 279192.17 -12.60
1797801.48 279197.64 -12.40
1797795.64 279203.11 -12.63
1797789.79 279208.57 -13.25
1797783.95 279214.04 -14.01
1797778.11 279219.50 -14.57
1797772.27 279224.97 -13.35
1797766.43 279230.44 -12.20
1797760.59 279235.90 -12.70
1797754.75 279241.37 -12.89
1797748.90 279246.84 -12.80
1797743.06 279252.30 -12.83
1797737.22 279257.77 -13.39
1797731.38 279263.23 -13.71
1797725.54 279268.70 -13.81
1797719.70 279274.17 -14.21
1797713.86 279279.63 -14.34
1797708.02 279285.10 -14.83
1797702.17 279290.57 -15.22
1797696.33 279296.03 -15.42
1797690.49 279301.50 -15.65
1797684.65 279306.96 -15.39
1797678.81 279312.43 -14.40
1797672.97 279317.90 -14.01
1797667.13 279323.36 -13.52
1797661.29 279328.83 -13.32
1797655.44 279334.29 -13.32
1797649.60 279339.76 -13.68
1797643.76 279345.23 -13.88
1797637.92 279350.69 -14.30
1797632.08 279356.16 -15.45
1797626.24 279361.63 -15.06
1797620.40 279367.09 -14.37
1797614.55 279372.56 -13.85
1797608.71 279378.02 -14.17
1797602.87 279383.49 -14.53
1797597.03 279388.96 -14.63
1797591.19 279394.42 -14.73
1797585.35 279399.89 -14.73
1797579.51 279405.36 -13.62
1797573.67 279410.82 -13.91
1797567.82 279416.29 -13.48
1797561.98 279421.75 -13.16
1797556.14 279427.22 -13.25
1797550.30 279432.69 -13.25
1797544.46 279438.15 -13.45
1797538.62 279443.62 -13.52
1797532.78 279449.08 -14.37
1797526.94 279454.55 -14.57
1797521.09 279460.02 -15.49
1797515.25 279465.48 -14.96
1797509.41 279470.95 -14.83
1797503.57 279476.42 -14.76
1797497.73 279481.88 -14.60
1797491.89 279487.35 -14.53
1797486.05 279492.81 -14.80
1797480.20 279498.28 -14.80
1797474.36 279503.75 -14.99
1797468.52 279509.21 -15.29
1797462.68 279514.68 -15.68
1797456.84 279520.15 -16.31
1797451.00 279525.61 -16.44
1797445.16 279531.08 -15.62
1797439.32 279536.54 -14.93
1797433.47 279542.01 -14.04
1797427.63 279547.48 -14.27
1797421.79 279552.94 -14.50
1797415.95 279558.41 -14.60
1797410.11 279563.87 -15.19
1797404.27 279569.34 -14.63
1797398.43 279574.81 -14.44
1797392.59 279580.27 -13.71
1797386.74 279585.74 -13.48
1797380.90 279591.21 -13.29
1797375.06 279596.67 -13.22
1797369.22 279602.14 -13.29
1797363.38 279607.60 -13.29
1797357.54 279613.07 -13.35
1797351.70 279618.54 -13.48
1797345.86 279624.00 -13.29
1797340.01 279629.47 -13.19
1797334.17 279634.94 -13.29
1797328.33 279640.40 -13.39
1797322.49 279645.87 -13.58
1797316.65 279651.33 -13.52
1797310.81 279656.80 -14.27
1797304.97 279662.27 -14.37
1797299.12 279667.73 -14.37
1797293.28 279673.20 -14.50
1797287.44 279678.66 -13.85
1797281.60 279684.13 -13.52
1797275.76 279689.60 -13.52
1797269.92 279695.06 -13.19
1797264.08 279700.53 -13.39
1797258.24 279706.00 -13.78
1797252.39 279711.46 -13.48
1797246.55 279716.93 -13.81
1797240.71 279722.39 -13.81
1797234.87 279727.86 -13.81
1797229.03 279733.33 -13.35
1797223.19 279738.79 -13.55
1797217.35 279744.26 -13.25
1797211.51 279749.73 -12.83
1797205.66 279755.19 -12.53
1797199.82 279760.66 -12.04
1797193.98 279766.12 -12.14
1797188.14 279771.59 -12.04
1797182.30 279777.06 -12.34
1797176.46 279782.52 -12.43
1797170.62 279787.99 -12.53
1797164.77 279793.45 -12.83
1797158.93 279798.92 -12.93
1797153.09 279804.39 -13.52
1797147.25 279809.85 -13.32
1797141.41 279815.32 -12.93
1797135.57 279820.79 -12.73
1797129.73 279826.25 -12.43
1797123.89 279831.72 -12.34
1797118.04 279837.18 -12.14
1797112.20 279842.65 -12.14
1797106.36 279848.12 -12.24
1797100.52 279853.58 -12.24
1797094.68 279859.05 -12.43
1797088.84 279864.52 -12.83
1797083.00 279869.98 -12.43
1797077.16 279875.45 -12.73
1797071.31 279880.91 -13.12
1797065.47 279886.38 -12.53
1797059.63 279891.85 -12.53
1797053.79 279897.31 -12.04
1797047.95 279902.78 -11.94
1797042.11 279908.24 -11.94
1797036.27 279913.71 -11.42
1797030.43 279919.18 -11.22
1797024.58 279924.64 -11.02
1797018.74 279930.11 -11.02
1797012.90 279935.58 -10.63
1797007.06 279941.04 -10.73
1797001.22 279946.51 -10.73
1796995.38 279951.97 -11.02
1796989.54 279957.44 -11.12
1796983.69 279962.91 -11.22
1796977.85 279968.37 -11.32
1796972.01 279973.84 -11.52
1796966.17 279979.31 -11.52
1796960.33 279984.77 -11.58
1796954.49 279990.24 -11.61
1796948.65 279995.70 -11.29
1796942.81 280001.17 -11.35
1796936.96 280006.64 -11.32
1796931.12 280012.10 -11.12
1796925.28 280017.57 -11.06
1796919.44 280023.03 -10.96
1796913.60 280028.50 -11.12
1796907.76 280033.97 -11.29
1796901.92 280039.43 -11.32
1796896.08 280044.90 -11.65
1796890.23 280050.37 -11.78
1796884.39 280055.83 -11.88
1796878.55 280061.30 -12.14
1796872.71 280066.76 -11.94
1796866.87 280072.23 -11.61
1796861.03 280077.70 -11.42
1796855.19 280083.16 -11.42
1796849.34 280088.63 -11.71
1796843.50 280094.10 -11.65
1796837.66 280099.56 -11.32
1796831.82 280105.03 -11.12
1796825.98 280110.49 -11.22
1796820.14 280115.96 -11.22
1796814.30 280121.43 -11.42
1796808.46 280126.89 -11.22
1796802.61 280132.36 -11.06
1796796.77 280137.82 -11.06
1796790.93 280143.29 -11.35
1796785.09 280148.76 -11.06
1796779.25 280154.22 -11.06
1796773.41 280159.69 -11.12
1796767.57 280165.16 -10.93
1796761.73 280170.62 -10.73
1796755.88 280176.09 -11.15
1796750.04 280181.55 -11.45
1796744.20 280187.02 -11.35
1796738.36 280192.49 -11.35
1796732.52 280197.95 -11.55
1796726.68 280203.42 -11.42
1796720.84 280208.89 -11.38
1796714.99 280214.35 -11.29
1796709.15 280219.82 -10.63
1796703.31 280225.28 -10.93
1796697.47 280230.75 -10.86
1796691.63 280236.22 -11.42
1796685.79 280241.68 -11.32
1796679.95 280247.15 -11.52
1796674.11 280252.61 -11.25
1796668.26 280258.08 -11.35
1796662.42 280263.55 -11.65
1796656.58 280269.01 -11.42
1796650.74 280274.48 -11.78
1796644.90 280279.95 -11.78
1796639.06 280285.41 -11.84
1796633.22 280290.88 -12.11
1796627.38 280296.34 -12.07
1796621.53 280301.81 -12.17
1796615.69 280307.28 -12.34
1796609.85 280312.74 -12.37
1796604.01 280318.21 -12.47
1796598.17 280323.68 -12.37
1796592.33 280329.14 -12.20
1796586.49 280334.61 -12.04
1796580.65 280340.07 -11.94
1796574.80 280345.54 -12.37
1796568.96 280351.01 -12.37
1796563.12 280356.47 -12.37
1796557.28 280361.94 -12.34
1796551.44 280367.40 -12.63
1796545.60 280372.87 -12.86
1796539.76 280378.34 -12.96
1796533.91 280383.80 -12.86
1796528.07 280389.27 -12.96
1796522.23 280394.74 -12.86
1796516.39 280400.20 -13.06
1796510.55 280405.67 -12.66
1796504.71 280411.13 -12.66
1796498.87 280416.60 -12.83
1796493.03 280422.07 -12.93
1796487.18 280427.53 -12.53
1796481.34 280433.00 -12.34
1796475.50 280438.47 -12.43
1796469.66 280443.93 -12.63
1796463.82 280449.40 -12.66
1796457.98 280454.86 -12.76
1796452.14 280460.33 -12.76
1796446.30 280465.80 -12.93
1796440.45 280471.26 -12.93
1796434.61 280476.73 -12.63
1796428.77 280482.19 -12.63
1796422.93 280487.66 -12.76
1796417.09 280493.13 -12.96
1796411.25 280498.59 -13.06
1796405.41 280504.06 -12.96
1796399.56 280509.53 -13.25
1796393.72 280514.99 -13.06
1796387.88 280520.46 -13.06
1796382.04 280525.92 -13.25
1796376.20 280531.39 -12.96
1796370.36 280536.86 -12.96
1796364.52 280542.32 -12.80
1796358.68 280547.79 -12.86
1796352.83 280553.26 -12.99
1796346.99 280558.72 -13.29
1796341.15 280564.19 -13.39
1796335.31 280569.65 -13.29
1796329.47 280575.12 -12.99
1796323.63 280580.59 -13.09
1796317.79 280586.05 -13.42
1796311.95 280591.52 -13.58
1796306.10 280596.98 -13.55
1796300.26 280602.45 -13.62
1796294.42 280607.92 -13.52
1796288.58 280613.38 -13.62
1796282.74 280618.85 -13.81
1796276.90 280624.32 -13.85
1796271.06 280629.78 -13.55
1796265.21 280635.25 -13.45
1796259.37 280640.71 -13.48
1796253.53 280646.18 -13.48
1796247.69 280651.65 -13.58
1796241.85 280657.11 -13.19
1796236.01 280662.58 -13.12
1796230.17 280668.05 -13.45
1796224.33 280673.51 -13.68
1796218.48 280678.98 -13.98
1796212.64 280684.44 -13.75
1796206.80 280689.91 -13.94
1796200.96 280695.38 -14.24
1796195.12 280700.84 -14.34
1796189.28 280706.31 -14.37
1796183.44 280711.77 -14.40
1796177.60 280717.24 -14.44
1796171.75 280722.71 -13.94
1796165.91 280728.17 -13.88
1796160.07 280733.64 -13.91
1796154.23 280739.11 -13.85
1796148.39 280744.57 -13.85
1796142.55 280750.04 -14.04
1796136.71 280755.50 -14.21
1796130.87 280760.97 -14.30
1796125.02 280766.44 -14.34
1796119.18 280771.90 -14.24
1796113.34 280777.37 -14.37
1796107.50 280782.84 -14.37
1796101.66 280788.30 -14.40
1796095.82 280793.77 -14.11
1796089.98 280799.23 -13.65
1796084.13 280804.70 -13.88
1796078.29 280810.17 -13.98
1796072.45 280815.63 -14.07
1796066.61 280821.10 -14.11
1796060.77 280826.56 -14.17
1796054.93 280832.03 -14.07
1796049.09 280837.50 -14.14
1796043.25 280842.96 -14.24
1796037.40 280848.43 -13.94
1796031.56 280853.90 -14.11
1796025.72 280859.36 -14.01
1796019.88 280864.83 -14.11
1796014.04 280870.29 -14.11
1796008.20 280875.76 -14.30
1796002.36 280881.23 -14.60
1795996.52 280886.69 -14.60
1795990.67 280892.16 -14.34
1795984.83 280897.63 -14.34
1795978.99 280903.09 -13.71
1795973.15 280908.56 -13.62
1795967.31 280914.02 -13.45
1795961.47 280919.49 -13.65
1795955.63 280924.96 -13.75
1795949.78 280930.42 -13.68
1795943.94 280935.89 -13.39
1795938.10 280941.35 -13.39
1795932.26 280946.82 -13.58
1795926.42 280952.29 -13.85
1795920.58 280957.75 -14.57
1795914.74 280963.22 -15.12
1795908.90 280968.69 -15.22
1795903.05 280974.15 -15.32
1795897.21 280979.62 -15.52
1795891.37 280985.08 -14.44
1795885.53 280990.55 -14.24
1795879.69 280996.02 -14.50
1795873.85 281001.48 -14.40
1795868.01 281006.95 -13.98
1795862.17 281012.42 -13.85
1795856.32 281017.88 -13.85
1795850.48 281023.35 -13.78
1795844.64 281028.81 -14.24
1795838.80 281034.28 -14.47
1795832.96 281039.75 -14.76
1795827.12 281045.21 -15.03
1795821.28 281050.68 -14.44
1795815.43 281056.14 -13.75
1795809.59 281061.61 -13.45
1795803.75 281067.08 -13.81
1795797.91 281072.54 -13.68
1795792.07 281078.01 -13.78
1795786.23 281083.48 -13.78
1795780.39 281088.94 -14.17
1795774.55 281094.41 -14.57
1795768.70 281099.87 -14.86
1795762.86 281105.34 -14.80
1795757.02 281110.81 -13.94
1795751.18 281116.27 -13.81
1795745.34 281121.74 -13.81
1795739.50 281127.21 -13.94
1795733.66 281132.67 -13.81
1795727.82 281138.14 -13.39
1795721.97 281143.60 -13.58
1795716.13 281149.07 -13.35
1795710.29 281154.54 -13.88
1795704.45 281160.00 -13.98
1795698.61 281165.47 -14.17
1795692.77 281170.93 -14.27
1795686.93 281176.40 -14.47
1795681.09 281181.87 -13.65
1795675.24 281187.33 -13.32
1795669.40 281192.80 -13.35
1795663.56 281198.27 -13.06
1795657.72 281203.73 -13.16
1795651.88 281209.20 -13.02
1795646.04 281214.66 -12.86
1795640.20 281220.13 -12.96
1795628.51 281231.06 -13.78
1795622.67 281236.53 -13.88
1795616.83 281242.00 -14.11
1795610.99 281247.46 -14.44
1795605.15 281252.93 -15.03
1795599.31 281258.39 -15.55
1795593.47 281263.86 -15.94
1795587.62 281269.33 -16.34
1795581.78 281274.79 -15.91
1795575.94 281280.26 -15.81
1795570.10 281285.72 -15.52
1795564.26 281291.19 -15.06
1795558.42 281296.66 -15.16
1795552.58 281302.12 -15.35
1795546.74 281307.59 -13.98
1795540.89 281313.06 -13.88
1795535.05 281318.52 -13.52
1795529.21 281323.99 -13.65
1795523.37 281329.45 -14.44
1795517.53 281334.92 -14.34
1795511.69 281340.39 -14.47
1795505.85 281345.85 -14.47
1795500.00 281351.32 -14.53
1795494.16 281356.79 -14.53
1795488.32 281362.25 -14.57
1795482.48 281367.72 -14.86
1795476.64 281373.18 -14.96
1795470.80 281378.65 -13.16
1795464.96 281384.12 -13.06
1795459.12 281389.58 -13.25
1795453.27 281395.05 -13.45
1795447.43 281400.51 -13.65
1795441.59 281405.98 -13.65
1795435.75 281411.45 -13.94
1795429.91 281416.91 -14.34
1795424.07 281422.38 -15.03
1795418.23 281427.85 -14.89
1795412.39 281433.31 -14.63
1795406.54 281438.78 -14.60
1795400.70 281444.24 -14.60
1795394.86 281449.71 -15.03
1795389.02 281455.18 -15.26
1795383.18 281460.64 -15.78
1795377.34 281466.11 -16.01
1795371.50 281471.58 -16.34
1795365.66 281477.04 -16.24
1795359.81 281482.51 -15.72
1795353.97 281487.97 -16.54
1795348.13 281493.44 -15.03
1795342.29 281498.91 -14.99
1795336.45 281504.37 -14.83
1795330.61 281509.84 -14.76
1795324.77 281515.30 -14.76
1795318.92 281520.77 -15.26
1795313.08 281526.24 -15.42
1795307.24 281531.70 -15.72
1795301.40 281537.17 -16.80
1795295.56 281542.64 -16.83
1795289.72 281548.10 -16.73
1795283.88 281553.57 -15.42
1795278.04 281559.03 -16.11
1795272.19 281564.50 -16.37
1795266.35 281569.97 -17.16
1795260.51 281575.43 -17.19
1795254.67 281580.90 -17.52
1795248.83 281586.37 -17.26
1795242.99 281591.83 -16.63
1795237.15 281597.30 -15.91
1795231.31 281602.76 -16.01
1795225.46 281608.23 -15.78
1795219.62 281613.70 -15.88
1795213.78 281619.16 -15.81
1795207.94 281624.63 -15.81
1795202.10 281630.09 -15.81
1795196.26 281635.56 -16.21
1795190.42 281641.03 -15.98
1795184.57 281646.49 -16.80
1795178.73 281651.96 -17.09
1795172.89 281657.43 -17.88
1795167.05 281662.89 -18.41
1795161.21 281668.36 -18.31
1795155.37 281673.82 -18.90
1795149.53 281679.29 -19.00
1795143.69 281684.76 -19.23
1795137.84 281690.22 -18.83
1795132.00 281695.69 -18.47
1797964.66 279055.89 -13.45
1797958.82 279061.36 -13.25
1797952.98 279066.83 -13.16
1797947.13 279072.29 -13.16
1797941.29 279077.76 -13.62
1797935.45 279083.23 -12.63
1797929.61 279088.69 -12.63
1797923.77 279094.16 -12.27
1797917.93 279099.62 -12.30
1797912.09 279105.09 -11.94
1797906.24 279110.56 -11.84
1797900.40 279116.02 -12.76
1797894.56 279121.49 -13.02
1797888.72 279126.95 -13.32
1797882.88 279132.42 -13.42
1797877.04 279137.89 -13.52
1797871.20 279143.35 -13.25
1797865.36 279148.82 -12.96
1797859.51 279154.29 -12.80
1797853.67 279159.75 -13.19
1797847.83 279165.22 -13.58
1797841.99 279170.68 -14.01
1797836.15 279176.15 -14.24
1797830.31 279181.62 -13.85
1797824.47 279187.08 -13.02
1797818.63 279192.55 -12.83
1797812.78 279198.02 -13.02
1797806.94 279203.48 -12.93
1797801.10 279208.95 -13.06
1797795.26 279214.41 -14.01
1797789.42 279219.88 -14.53
1797783.58 279225.35 -14.93
1797777.74 279230.81 -13.09
1797771.89 279236.28 -12.80
1797766.05 279241.74 -13.02
1797760.21 279247.21 -13.19
1797754.37 279252.68 -13.12
1797748.53 279258.14 -13.22
1797742.69 279263.61 -13.42
1797736.85 279269.08 -13.85
1797731.01 279274.54 -14.01
1797725.16 279280.01 -14.01
1797719.32 279285.47 -14.17
1797713.48 279290.94 -14.60
1797707.64 279296.41 -14.93
1797701.80 279301.87 -15.55
1797695.96 279307.34 -15.91
1797690.12 279312.81 -14.07
1797684.28 279318.27 -13.58
1797678.43 279323.74 -13.39
1797672.59 279329.20 -13.39
1797666.75 279334.67 -13.48
1797660.91 279340.14 -13.78
1797655.07 279345.60 -13.88
1797649.23 279351.07 -14.37
1797643.39 279356.53 -15.26
1797637.54 279362.00 -15.55
1797631.70 279367.47 -14.73
1797625.86 279372.93 -13.91
1797620.02 279378.40 -14.01
1797614.18 279383.87 -14.24
1797608.34 279389.33 -14.96
1797602.50 279394.80 -15.09
1797596.66 279400.26 -15.49
1797590.81 279405.73 -14.01
1797584.97 279411.20 -13.81
1797579.13 279416.66 -13.71
1797573.29 279422.13 -13.35
1797567.45 279427.60 -13.52
1797561.61 279433.06 -13.71
1797555.77 279438.53 -14.04
1797549.93 279443.99 -14.11
1797544.08 279449.46 -14.40
1797538.24 279454.93 -14.57
1797532.40 279460.39 -14.67
1797526.56 279465.86 -14.76
1797520.72 279471.32 -14.93
1797514.88 279476.79 -14.73
1797509.04 279482.26 -14.44
1797503.20 279487.72 -14.44
1797497.35 279493.19 -14.44
1797491.51 279498.66 -14.47
1797485.67 279504.12 -14.93
1797479.83 279509.59 -14.96
1797473.99 279515.05 -15.55
1797468.15 279520.52 -16.11
1797462.31 279525.99 -16.54
1797456.46 279531.45 -16.27
1797450.62 279536.92 -15.35
1797444.78 279542.39 -14.80
1797438.94 279547.85 -14.50
1797433.10 279553.32 -14.83
1797427.26 279558.78 -14.93
1797421.42 279564.25 -15.42
1797415.58 279569.72 -15.55
1797409.73 279575.18 -14.57
1797403.89 279580.65 -14.07
1797398.05 279586.11 -13.45
1797392.21 279591.58 -13.48
1797386.37 279597.05 -13.42
1797380.53 279602.51 -13.55
1797374.69 279607.98 -13.48
1797368.85 279613.45 -13.68
1797363.00 279618.91 -13.81
1797357.16 279624.38 -14.04
1797351.32 279629.84 -13.81
1797345.48 279635.31 -13.39
1797339.64 279640.78 -13.71
1797333.80 279646.24 -14.24
1797327.96 279651.71 -14.24
1797322.11 279657.18 -14.44
1797316.27 279662.64 -14.60
1797310.43 279668.11 -15.19
1797304.59 279673.57 -14.73
1797298.75 279679.04 -14.57
1797292.91 279684.51 -14.11
1797287.07 279689.97 -14.30
1797281.23 279695.44 -13.48
1797275.38 279700.90 -13.19
1797269.54 279706.37 -13.78
1797263.70 279711.84 -14.01
1797257.86 279717.30 -13.88
1797252.02 279722.77 -14.01
1797246.18 279728.24 -14.04
1797240.34 279733.70 -13.55
1797234.50 279739.17 -13.45
1797228.65 279744.63 -13.25
1797222.81 279750.10 -13.25
1797216.97 279755.57 -12.83
1797211.13 279761.03 -12.73
1797205.29 279766.50 -12.83
1797199.45 279771.97 -13.12
1797193.61 279777.43 -13.02
1797187.76 279782.90 -13.02
1797181.92 279788.36 -13.29
1797176.08 279793.83 -13.35
1797170.24 279799.30 -13.35
1797164.40 279804.76 -13.65
1797158.56 279810.23 -13.45
1797152.72 279815.69 -12.89
1797146.88 279821.16 -12.93
1797141.03 279826.63 -12.60
1797135.19 279832.09 -12.66
1797129.35 279837.56 -12.47
1797123.51 279843.03 -12.60
1797117.67 279848.49 -12.63
1797111.83 279853.96 -12.60
1797105.99 279859.42 -12.70
1797100.15 279864.89 -12.60
1797094.30 279870.36 -12.66
1797088.46 279875.82 -13.02
1797082.62 279881.29 -13.25
1797076.78 279886.76 -12.66
1797070.94 279892.22 -12.37
1797065.10 279897.69 -12.37
1797059.26 279903.15 -11.94
1797053.42 279908.62 -11.48
1797047.57 279914.09 -11.58
1797041.73 279919.55 -11.71
1797035.89 279925.02 -11.32
1797030.05 279930.48 -11.42
1797024.21 279935.95 -11.42
1797018.37 279941.42 -11.42
1797012.53 279946.88 -11.48
1797006.68 279952.35 -11.58
1797000.84 279957.82 -11.68
1796995.00 279963.28 -11.68
1796989.16 279968.75 -12.01
1796983.32 279974.21 -11.91
1796977.48 279979.68 -12.01
1796971.64 279985.15 -12.20
1796965.80 279990.61 -12.11
1796959.95 279996.08 -11.81
1796954.11 280001.55 -11.29
1796948.27 280007.01 -11.38
1796942.43 280012.48 -11.32
1796936.59 280017.94 -11.09
1796930.75 280023.41 -11.15
1796924.91 280028.88 -11.22
1796919.07 280034.34 -11.29
1796913.22 280039.81 -11.29
1796907.38 280045.27 -11.58
1796901.54 280050.74 -11.68
1796895.70 280056.21 -11.98
1796889.86 280061.67 -12.04
1796884.02 280067.14 -11.81
1796878.18 280072.61 -11.61
1796872.33 280078.07 -11.52
1796866.49 280083.54 -11.32
1796860.65 280089.00 -11.52
1796854.81 280094.47 -11.68
1796848.97 280099.94 -11.81
1796843.13 280105.40 -11.42
1796837.29 280110.87 -11.42
1796831.45 280116.34 -11.32
1796825.60 280121.80 -11.32
1796819.76 280127.27 -11.22
1796813.92 280132.73 -11.52
1796808.08 280138.20 -11.42
1796802.24 280143.67 -11.22
1796796.40 280149.13 -11.12
1796790.56 280154.60 -10.93
1796784.72 280160.06 -10.73
1796778.87 280165.53 -11.02
1796773.03 280171.00 -10.83
1796767.19 280176.46 -10.83
1796761.35 280181.93 -11.12
1796755.51 280187.40 -11.12
1796749.67 280192.86 -10.96
1796743.83 280198.33 -11.35
1796737.98 280203.79 -11.06
1796732.14 280209.26 -10.93
1796726.30 280214.73 -10.79
1796720.46 280220.19 -10.83
1796714.62 280225.66 -10.73
1796708.78 280231.13 -10.86
1796702.94 280236.59 -10.96
1796697.10 280242.06 -10.93
1796691.25 280247.52 -10.89
1796685.41 280252.99 -11.22
1796679.57 280258.46 -11.42
1796673.73 280263.92 -11.61
1796667.89 280269.39 -11.65
1796662.05 280274.85 -11.68
1796656.21 280280.32 -11.68
1796650.37 280285.79 -11.88
1796644.52 280291.25 -11.98
1796638.68 280296.72 -12.04
1796632.84 280302.19 -12.04
1796627.00 280307.65 -12.24
1796621.16 280313.12 -12.20
1796615.32 280318.58 -11.81
1796609.48 280324.05 -11.71
1796603.64 280329.52 -11.88
1796597.79 280334.98 -11.88
1796591.95 280340.45 -11.91
1796586.11 280345.92 -12.01
1796580.27 280351.38 -12.40
1796574.43 280356.85 -12.57
1796568.59 280362.31 -12.50
1796562.75 280367.78 -12.70
1796556.90 280373.25 -13.09
1796551.06 280378.71 -12.96
1796545.22 280384.18 -12.86
1796539.38 280389.64 -12.66
1796533.54 280395.11 -12.96
1796527.70 280400.58 -13.06
1796521.86 280406.04 -12.66
1796516.02 280411.51 -12.57
1796510.17 280416.98 -12.37
1796504.33 280422.44 -12.63
1796498.49 280427.91 -12.83
1796492.65 280433.37 -12.73
1796486.81 280438.84 -12.80
1796480.97 280444.31 -12.80
1796475.13 280449.77 -13.02
1796469.29 280455.24 -12.96
1796463.44 280460.71 -13.06
1796457.60 280466.17 -13.12
1796451.76 280471.64 -13.32
1796445.92 280477.10 -13.12
1796440.08 280482.57 -12.93
1796434.24 280488.04 -13.02
1796428.40 280493.50 -13.02
1796422.55 280498.97 -13.42
1796416.71 280504.43 -13.02
1796410.87 280509.90 -13.02
1796405.03 280515.37 -13.12
1796399.19 280520.83 -13.02
1796393.35 280526.30 -13.22
1796387.51 280531.77 -13.02
1796381.67 280537.23 -13.02
1796375.82 280542.70 -13.02
1796369.98 280548.16 -13.12
1796364.14 280553.63 -12.93
1796358.30 280559.10 -13.12
1796352.46 280564.56 -13.32
1796346.62 280570.03 -13.52
1796340.78 280575.50 -13.25
1796334.94 280580.96 -13.06
1796329.09 280586.43 -13.25
1796323.25 280591.89 -13.85
1796317.41 280597.36 -13.65
1796311.57 280602.83 -13.55
1796305.73 280608.29 -13.45
1796299.89 280613.76 -13.45
1796294.05 280619.22 -13.65
1796288.21 280624.69 -13.78
1796282.36 280630.16 -13.58
1796276.52 280635.62 -13.29
1796270.68 280641.09 -13.19
1796264.84 280646.56 -13.09
1796259.00 280652.02 -13.45
1796253.16 280657.49 -13.25
1796247.32 280662.95 -13.35
1796241.47 280668.42 -13.45
1796235.63 280673.89 -13.52
1796229.79 280679.35 -13.75
1796223.95 280684.82 -14.01
1796218.11 280690.29 -14.01
1796212.27 280695.75 -14.11
1796206.43 280701.22 -14.01
1796200.59 280706.68 -14.11
1796194.74 280712.15 -14.27
1796188.90 280717.62 -14.37
1796183.06 280723.08 -14.27
1796177.22 280728.55 -14.30
1796171.38 280734.01 -14.34
1796165.54 280739.48 -14.34
1796159.70 280744.95 -14.37
1796153.86 280750.41 -14.30
1796148.01 280755.88 -14.40
1796142.17 280761.35 -14.44
1796136.33 280766.81 -14.73
1796130.49 280772.28 -14.50
1796124.65 280777.74 -14.14
1796118.81 280783.21 -14.44
1796112.97 280788.68 -14.53
1796107.12 280794.14 -14.44
1796101.28 280799.61 -14.01
1796095.44 280805.08 -13.65
1796089.60 280810.54 -13.88
1796083.76 280816.01 -13.98
1796077.92 280821.47 -14.04
1796072.08 280826.94 -14.24
1796066.24 280832.41 -14.07
1796060.39 280837.87 -14.07
1796054.55 280843.34 -14.04
1796048.71 280848.80 -14.24
1796042.87 280854.27 -14.44
1796037.03 280859.74 -14.21
1796031.19 280865.20 -14.57
1796025.35 280870.67 -14.67
1796019.51 280876.14 -14.83
1796013.66 280881.60 -14.86
1796007.82 280887.07 -14.80
1796001.98 280892.53 -14.73
1795996.14 280898.00 -14.27
1795990.30 280903.47 -14.47
1795984.46 280908.93 -14.27
1795978.62 280914.40 -13.91
1795972.77 280919.87 -14.01
1795966.93 280925.33 -14.24
1795961.09 280930.80 -14.07
1795955.25 280936.26 -13.75
1795949.41 280941.73 -13.75
1795943.57 280947.20 -13.35
1795937.73 280952.66 -13.71
1795931.89 280958.13 -14.34
1795926.04 280963.59 -14.83
1795920.20 280969.06 -15.35
1795914.36 280974.53 -15.26
1795908.52 280979.99 -15.29
1795902.68 280985.46 -14.99
1795896.84 280990.93 -14.40
1795891.00 280996.39 -14.24
1795885.16 281001.86 -14.47
1795879.31 281007.32 -14.37
1795873.47 281012.79 -13.98
1795867.63 281018.26 -13.98
1795861.79 281023.72 -14.24
1795855.95 281029.19 -14.11
1795850.11 281034.66 -14.44
1795844.27 281040.12 -14.53
1795838.43 281045.59 -14.73
1795832.58 281051.05 -14.34
1795826.74 281056.52 -13.91
1795820.90 281061.99 -13.68
1795815.06 281067.45 -13.62
1795809.22 281072.92 -13.78
1795803.38 281078.38 -13.91
1795797.54 281083.85 -13.98
1795791.69 281089.32 -14.04
1795785.85 281094.78 -14.37
1795780.01 281100.25 -14.60
1795774.17 281105.72 -15.09
1795768.33 281111.18 -14.11
1795762.49 281116.65 -14.04
1795756.65 281122.11 -14.01
1795750.81 281127.58 -13.62
1795744.96 281133.05 -13.62
1795739.12 281138.51 -13.88
1795733.28 281143.98 -13.55
1795727.44 281149.45 -13.68
1795721.60 281154.91 -13.88
1795715.76 281160.38 -13.65
1795709.92 281165.84 -14.04
1795704.08 281171.31 -14.30
1795698.23 281176.78 -14.21
1795692.39 281182.24 -14.07
1795686.55 281187.71 -13.94
1795680.71 281193.17 -12.93
1795674.87 281198.64 -13.12
1795669.03 281204.11 -12.93
1795663.19 281209.57 -13.12
1795657.34 281215.04 -13.22
1795651.50 281220.51 -13.16
1795645.66 281225.97 -13.85
1795639.82 281231.44 -13.85
1795633.98 281236.90 -14.24
1795593.09 281275.17 -15.78
1795587.25 281280.63 -15.55
1795581.41 281286.10 -15.49
1795575.57 281291.57 -15.55
1795569.73 281297.03 -15.16
1795563.88 281302.50 -15.26
1795558.04 281307.96 -14.40
1795552.20 281313.43 -14.27
1795546.36 281318.90 -14.37
1795540.52 281324.36 -14.57
1795534.68 281329.83 -14.07
1795528.84 281335.30 -14.53
1795522.99 281340.76 -14.53
1795517.15 281346.23 -14.47
1795511.31 281351.69 -13.85
1795505.47 281357.16 -14.14
1795499.63 281362.63 -14.44
1795493.79 281368.09 -14.63
1795487.95 281373.56 -14.73
1795482.11 281379.03 -15.03
1795476.26 281384.49 -13.62
1795470.42 281389.96 -13.02
1795464.58 281395.42 -13.06
1795458.74 281400.89 -13.16
1795452.90 281406.36 -13.45
1795447.06 281411.82 -13.45
1795441.22 281417.29 -14.07
1795435.38 281422.75 -14.57
1795429.53 281428.22 -15.22
1795423.69 281433.69 -14.83
1795417.85 281439.15 -14.50
1795412.01 281444.62 -14.21
1795406.17 281450.09 -14.27
1795400.33 281455.55 -14.57
1795394.49 281461.02 -14.96
1795388.65 281466.48 -15.65
1795382.80 281471.95 -16.01
1795376.96 281477.42 -15.91
1795371.12 281482.88 -15.06
1795365.28 281488.35 -14.83
1795359.44 281493.82 -14.83
1795353.60 281499.28 -15.26
1795347.76 281504.75 -14.96
1795341.91 281510.21 -14.99
1795336.07 281515.68 -14.67
1795330.23 281521.15 -14.96
1795324.39 281526.61 -15.09
1795318.55 281532.08 -15.39
1795312.71 281537.54 -15.39
1795306.87 281543.01 -16.08
1795301.03 281548.48 -16.86
1795295.18 281553.94 -17.36
1795277.66 281570.34 -16.90
1795271.82 281575.81 -17.22
1795265.98 281581.27 -16.63
1795260.14 281586.74 -16.77
1795254.30 281592.21 -17.13
1795248.45 281597.67 -15.98
1795242.61 281603.14 -15.88
1795236.77 281608.60 -15.78
1795230.93 281614.07 -15.78
1795225.09 281619.54 -15.68
1795219.25 281625.00 -15.52
1795213.41 281630.47 -15.91
1795207.56 281635.94 -16.34
1795201.72 281641.40 -16.34
1795195.88 281646.87 -16.34
1795190.04 281652.33 -16.44
1795184.20 281657.80 -16.73
1795178.36 281663.27 -17.42
1795172.52 281668.73 -18.80
1795166.68 281674.20 -18.80
1795160.83 281679.67 -18.50
1795154.99 281685.13 -19.06
1795149.15 281690.60 -19.13
1795143.31 281696.06 -18.60
1795137.47 281701.53 -18.70
1795131.63 281707.00 -18.44
1795125.79 281712.46 -18.64
1795119.95 281717.93 -18.64
1795114.10 281723.39 -18.93
1797970.12 279061.74 -13.39
1797964.28 279067.20 -13.65
1797958.44 279072.67 -13.75
1797952.60 279078.13 -13.75
1797946.76 279083.60 -13.02
1797940.92 279089.07 -13.02
1797935.08 279094.53 -12.30
1797929.23 279100.00 -12.30
1797923.39 279105.46 -12.01
1797917.55 279110.93 -11.71
1797911.71 279116.40 -12.01
1797905.87 279121.86 -12.50
1797900.03 279127.33 -13.22
1797894.19 279132.80 -13.81
1797888.35 279138.26 -13.65
1797882.50 279143.73 -13.25
1797876.66 279149.19 -13.06
1797870.82 279154.66 -12.89
1797864.98 279160.13 -12.99
1797859.14 279165.59 -13.09
1797853.30 279171.06 -13.39
1797847.46 279176.53 -13.68
1797841.62 279181.99 -14.37
1797835.77 279187.46 -13.39
1797829.93 279192.92 -13.09
1797824.09 279198.39 -12.83
1797818.25 279203.86 -12.83
1797812.41 279209.32 -13.12
1797806.57 279214.79 -13.91
1797800.73 279220.25 -14.34
1797794.88 279225.72 -15.52
1797789.04 279231.19 -15.75
1797783.20 279236.65 -13.22
1797777.36 279242.12 -13.39
1797771.52 279247.59 -13.25
1797765.68 279253.05 -13.48
1797759.84 279258.52 -13.52
1797754.00 279263.98 -13.42
1797748.15 279269.45 -13.42
1797742.31 279274.92 -13.71
1797736.47 279280.38 -13.88
1797730.63 279285.85 -14.30
1797724.79 279291.32 -14.47
1797718.95 279296.78 -14.44
1797713.11 279302.25 -15.12
1797707.27 279307.71 -15.72
1797701.42 279313.18 -16.17
1797695.58 279318.65 -13.94
1797689.74 279324.11 -13.45
1797683.90 279329.58 -13.25
1797678.06 279335.04 -13.25
1797672.22 279340.51 -13.85
1797666.38 279345.98 -13.85
1797660.53 279351.44 -14.17
1797654.69 279356.91 -14.86
1797648.85 279362.38 -15.45
1797643.01 279367.84 -15.52
1797637.17 279373.31 -14.73
1797631.33 279378.77 -14.21
1797625.49 279384.24 -14.40
1797619.65 279389.71 -14.76
1797613.80 279395.17 -15.22
1797607.96 279400.64 -15.45
1797602.12 279406.11 -15.06
1797596.28 279411.57 -14.24
1797590.44 279417.04 -14.11
1797584.60 279422.50 -13.81
1797578.76 279427.97 -14.17
1797572.92 279433.44 -14.40
1797567.07 279438.90 -14.21
1797561.23 279444.37 -14.17
1797555.39 279449.83 -14.04
1797549.55 279455.30 -14.53
1797543.71 279460.77 -14.63
1797537.87 279466.23 -14.80
1797532.03 279471.70 -14.93
1797526.19 279477.17 -14.73
1797520.34 279482.63 -14.44
1797514.50 279488.10 -14.57
1797508.66 279493.56 -14.40
1797502.82 279499.03 -14.83
1797496.98 279504.50 -14.93
1797491.14 279509.96 -14.99
1797485.30 279515.43 -15.32
1797479.45 279520.90 -15.85
1797473.61 279526.36 -16.17
1797467.77 279531.83 -16.24
1797461.93 279537.29 -16.01
1797456.09 279542.76 -15.22
1797450.25 279548.23 -15.09
1797444.41 279553.69 -15.06
1797438.57 279559.16 -14.86
1797432.72 279564.62 -15.16
1797426.88 279570.09 -15.32
1797421.04 279575.56 -15.32
1797415.20 279581.02 -14.37
1797409.36 279586.49 -13.71
1797403.52 279591.96 -13.48
1797397.68 279597.42 -13.78
1797391.84 279602.89 -13.55
1797385.99 279608.35 -13.45
1797380.15 279613.82 -14.01
1797374.31 279619.29 -13.81
1797368.47 279624.75 -14.40
1797362.63 279630.22 -14.14
1797356.79 279635.69 -14.14
1797350.95 279641.15 -14.50
1797345.10 279646.62 -14.53
1797339.26 279652.08 -14.34
1797333.42 279657.55 -14.44
1797327.58 279663.02 -14.86
1797321.74 279668.48 -15.26
1797315.90 279673.95 -15.22
1797310.06 279679.41 -14.99
1797304.22 279684.88 -14.60
1797298.37 279690.35 -14.21
1797292.53 279695.81 -14.21
1797286.69 279701.28 -13.39
1797280.85 279706.75 -13.68
1797275.01 279712.21 -13.91
1797269.17 279717.68 -13.68
1797263.33 279723.14 -13.68
1797257.49 279728.61 -14.14
1797251.64 279734.08 -13.68
1797245.80 279739.54 -13.52
1797239.96 279745.01 -13.42
1797234.12 279750.48 -13.09
1797228.28 279755.94 -13.16
1797222.44 279761.41 -12.66
1797216.60 279766.87 -12.76
1797210.76 279772.34 -12.96
1797204.91 279777.81 -13.06
1797199.07 279783.27 -13.02
1797193.23 279788.74 -13.52
1797187.39 279794.20 -13.71
1797181.55 279799.67 -13.58
1797175.71 279805.14 -13.78
1797169.87 279810.60 -13.39
1797164.02 279816.07 -13.19
1797158.18 279821.54 -12.93
1797152.34 279827.00 -12.83
1797146.50 279832.47 -12.83
1797140.66 279837.93 -12.53
1797134.82 279843.40 -12.80
1797128.98 279848.87 -12.73
1797123.14 279854.33 -12.89
1797117.29 279859.80 -12.70
1797111.45 279865.27 -12.73
1797105.61 279870.73 -12.80
1797099.77 279876.20 -13.09
1797093.93 279881.66 -13.19
1797088.09 279887.13 -13.12
1797082.25 279892.60 -12.66
1797076.41 279898.06 -12.14
1797070.56 279903.53 -12.14
1797064.72 279908.99 -11.91
1797058.88 279914.46 -11.48
1797053.04 279919.93 -11.81
1797047.20 279925.39 -11.22
1797041.36 279930.86 -11.12
1797035.52 279936.33 -11.35
1797029.67 279941.79 -11.06
1797023.83 279947.26 -11.22
1797017.99 279952.72 -11.42
1797012.15 279958.19 -11.52
1797006.31 279963.66 -11.42
1797000.47 279969.12 -11.75
1796994.63 279974.59 -11.91
1796988.79 279980.06 -11.94
1796982.94 279985.52 -12.01
1796977.10 279990.99 -12.04
1796971.26 279996.45 -11.88
1796965.42 280001.92 -11.29
1796959.58 280007.39 -11.75
1796953.74 280012.85 -11.38
1796947.90 280018.32 -11.15
1796942.06 280023.78 -11.25
1796936.21 280029.25 -11.38
1796930.37 280034.72 -11.45
1796924.53 280040.18 -11.55
1796918.69 280045.65 -11.58
1796912.85 280051.12 -11.68
1796907.01 280056.58 -11.91
1796901.17 280062.05 -12.11
1796895.32 280067.51 -12.14
1796889.48 280072.98 -11.94
1796883.64 280078.45 -11.71
1796877.80 280083.91 -11.68
1796871.96 280089.38 -11.68
1796866.12 280094.85 -12.01
1796860.28 280100.31 -11.91
1796854.44 280105.78 -12.20
1796848.59 280111.24 -12.11
1796842.75 280116.71 -11.94
1796836.91 280122.18 -11.42
1796831.07 280127.64 -11.61
1796825.23 280133.11 -11.22
1796819.39 280138.57 -11.42
1796813.55 280144.04 -11.32
1796807.71 280149.51 -11.22
1796801.86 280154.97 -11.02
1796796.02 280160.44 -10.93
1796790.18 280165.91 -10.73
1796784.34 280171.37 -10.83
1796778.50 280176.84 -10.83
1796772.66 280182.30 -10.83
1796766.82 280187.77 -10.93
1796760.98 280193.24 -11.12
1796755.13 280198.70 -11.12
1796749.29 280204.17 -10.73
1796743.45 280209.64 -10.83
1796737.61 280215.10 -10.73
1796731.77 280220.57 -10.43
1796725.93 280226.03 -10.53
1796720.09 280231.50 -10.43
1796714.24 280236.97 -10.66
1796708.40 280242.43 -10.66
1796702.56 280247.90 -10.96
1796696.72 280253.36 -11.06
1796690.88 280258.83 -11.06
1796685.04 280264.30 -11.35
1796679.20 280269.76 -11.48
1796673.36 280275.23 -11.61
1796667.51 280280.70 -11.65
1796661.67 280286.16 -11.84
1796655.83 280291.63 -11.88
1796649.99 280297.09 -11.94
1796644.15 280302.56 -11.91
1796638.31 280308.03 -12.04
1796632.47 280313.49 -12.01
1796626.63 280318.96 -11.91
1796620.78 280324.43 -11.58
1796614.94 280329.89 -11.48
1796609.10 280335.36 -11.58
1796603.26 280340.82 -11.68
1796597.42 280346.29 -11.68
1796591.58 280351.76 -11.98
1796585.74 280357.22 -12.43
1796579.89 280362.69 -12.53
1796574.05 280368.15 -12.53
1796568.21 280373.62 -12.43
1796562.37 280379.09 -12.73
1796556.53 280384.55 -12.73
1796550.69 280390.02 -12.40
1796544.85 280395.49 -12.73
1796539.01 280400.95 -12.73
1796533.16 280406.42 -13.16
1796527.32 280411.88 -12.76
1796521.48 280417.35 -12.76
1796515.64 280422.82 -12.83
1796509.80 280428.28 -12.83
1796503.96 280433.75 -12.83
1796498.12 280439.22 -12.93
1796492.28 280444.68 -13.06
1796486.43 280450.15 -12.86
1796480.59 280455.61 -13.02
1796474.75 280461.08 -13.16
1796468.91 280466.55 -13.22
1796463.07 280472.01 -12.93
1796457.23 280477.48 -13.06
1796451.39 280482.94 -12.89
1796445.54 280488.41 -12.89
1796439.70 280493.88 -13.12
1796433.86 280499.34 -13.19
1796428.02 280504.81 -13.09
1796422.18 280510.28 -13.35
1796416.34 280515.74 -13.06
1796410.50 280521.21 -13.16
1796404.66 280526.67 -13.06
1796398.81 280532.14 -13.25
1796392.97 280537.61 -13.29
1796387.13 280543.07 -13.25
1796381.29 280548.54 -13.29
1796375.45 280554.01 -13.32
1796369.61 280559.47 -13.29
1796363.77 280564.94 -13.29
1796357.93 280570.40 -13.58
1796352.08 280575.87 -13.42
1796346.24 280581.34 -13.22
1796340.40 280586.80 -13.12
1796334.56 280592.27 -13.32
1796328.72 280597.73 -13.62
1796322.88 280603.20 -13.62
1796317.04 280608.67 -13.62
1796311.20 280614.13 -13.52
1796305.35 280619.60 -13.42
1796299.51 280625.07 -13.62
1796293.67 280630.53 -13.52
1796287.83 280636.00 -13.42
1796281.99 280641.46 -13.35
1796276.15 280646.93 -13.06
1796270.31 280652.40 -13.45
1796264.46 280657.86 -13.35
1796258.62 280663.33 -13.35
1796252.78 280668.80 -13.48
1796246.94 280674.26 -13.39
1796241.10 280679.73 -13.68
1796235.26 280685.19 -13.88
1796229.42 280690.66 -13.88
1796223.58 280696.13 -14.07
1796217.73 280701.59 -14.07
1796211.89 280707.06 -14.07
1796206.05 280712.52 -14.30
1796200.21 280717.99 -14.30
1796194.37 280723.46 -14.44
1796188.53 280728.92 -14.40
1796182.69 280734.39 -14.21
1796176.85 280739.86 -14.21
1796171.00 280745.32 -14.27
1796165.16 280750.79 -14.47
1796159.32 280756.25 -14.57
1796153.48 280761.72 -14.57
1796147.64 280767.19 -14.86
1796141.80 280772.65 -14.76
1796135.96 280778.12 -14.76
1796130.11 280783.59 -14.86
1796124.27 280789.05 -15.26
1796118.43 280794.52 -14.96
1796112.59 280799.98 -14.53
1796106.75 280805.45 -14.70
1796100.91 280810.92 -14.24
1796095.07 280816.38 -14.63
1796089.23 280821.85 -14.60
1796083.38 280827.31 -14.80
1796077.54 280832.78 -14.83
1796071.70 280838.25 -14.34
1796065.86 280843.71 -14.11
1796060.02 280849.18 -14.21
1796054.18 280854.65 -14.57
1796048.34 280860.11 -14.47
1796042.50 280865.58 -14.53
1796036.65 280871.04 -14.83
1796030.81 280876.51 -14.76
1796024.97 280881.98 -14.86
1796019.13 280887.44 -14.86
1796013.29 280892.91 -14.63
1796007.45 280898.38 -14.70
1796001.61 280903.84 -14.50
1795995.77 280909.31 -14.53
1795989.92 280914.77 -14.17
1795984.08 280920.24 -13.98
1795978.24 280925.71 -13.85
1795972.40 280931.17 -14.21
1795966.56 280936.64 -14.60
1795960.72 280942.10 -14.76
1795954.88 280947.57 -14.50
1795949.03 280953.04 -14.30
1795943.19 280958.50 -14.50
1795937.35 280963.97 -14.86
1795931.51 280969.44 -15.45
1795925.67 280974.90 -15.81
1795919.83 280980.37 -15.16
1795913.99 280985.83 -15.35
1795908.15 280991.30 -14.57
1795902.30 280996.77 -14.27
1795896.46 281002.23 -14.27
1795890.62 281007.70 -14.53
1795884.78 281013.17 -14.34
1795878.94 281018.63 -14.21
1795873.10 281024.10 -14.30
1795867.26 281029.56 -14.50
1795861.42 281035.03 -14.40
1795855.57 281040.50 -14.50
1795849.73 281045.96 -14.60
1795843.89 281051.43 -14.30
1795838.05 281056.89 -14.21
1795832.21 281062.36 -13.58
1795826.37 281067.83 -13.91
1795820.53 281073.29 -13.58
1795814.68 281078.76 -13.91
1795808.84 281084.23 -14.11
1795803.00 281089.69 -14.24
1795797.16 281095.16 -14.47
1795791.32 281100.62 -14.60
1795785.48 281106.09 -14.99
1795779.64 281111.56 -14.37
1795773.80 281117.02 -14.01
1795767.95 281122.49 -14.01
1795762.11 281127.96 -13.91
1795756.27 281133.42 -13.71
1795750.43 281138.89 -13.85
1795744.59 281144.35 -14.04
1795738.75 281149.82 -14.07
1795732.91 281155.29 -13.94
1795727.07 281160.75 -13.78
1795721.22 281166.22 -13.78
1795715.38 281171.68 -14.04
1795709.54 281177.15 -14.17
1795703.70 281182.62 -13.91
1795697.86 281188.08 -13.78
1795692.02 281193.55 -13.52
1795686.18 281199.02 -13.09
1795680.33 281204.48 -13.02
1795674.49 281209.95 -13.02
1795668.65 281215.41 -13.22
1795662.81 281220.88 -13.29
1795656.97 281226.35 -13.42
1795651.13 281231.81 -14.17
1795645.29 281237.28 -14.24
1795639.45 281242.75 -14.24
1795633.60 281248.21 -14.60
1795627.76 281253.68 -15.26
1795621.92 281259.14 -15.62
1795616.08 281264.61 -15.98
1795610.24 281270.08 -16.60
1795604.40 281275.54 -15.94
1795598.56 281281.01 -15.49
1795592.72 281286.47 -15.62
1795586.87 281291.94 -15.72
1795581.03 281297.41 -16.17
1795575.19 281302.87 -15.45
1795569.35 281308.34 -15.45
1795563.51 281313.81 -15.49
1795557.67 281319.27 -14.67
1795551.83 281324.74 -14.50
1795545.99 281330.20 -14.50
1795540.14 281335.67 -14.60
1795534.30 281341.14 -14.70
1795528.46 281346.60 -14.44
1795522.62 281352.07 -14.57
1795516.78 281357.54 -14.40
1795510.94 281363.00 -14.40
1795505.10 281368.47 -14.44
1795499.25 281373.93 -14.63
1795493.41 281379.40 -14.63
1795487.57 281384.87 -13.71
1795481.73 281390.33 -13.42
1795475.89 281395.80 -12.86
1795470.05 281401.26 -12.70
1795464.21 281406.73 -13.06
1795458.37 281412.20 -13.39
1795452.52 281417.66 -13.48
1795446.68 281423.13 -14.01
1795440.84 281428.60 -14.80
1795435.00 281434.06 -15.49
1795429.16 281439.53 -14.89
1795423.32 281444.99 -14.63
1795417.48 281450.46 -14.60
1795411.64 281455.93 -14.80
1795405.79 281461.39 -15.16
1795399.95 281466.86 -15.75
1795394.11 281472.33 -16.14
1795388.27 281477.79 -15.72
1795382.43 281483.26 -14.70
1795376.59 281488.72 -14.47
1795370.75 281494.19 -14.67
1795364.90 281499.66 -14.67
1795359.06 281505.12 -14.60
1795353.22 281510.59 -14.60
1795347.38 281516.05 -14.70
1795341.54 281521.52 -14.80
1795335.70 281526.99 -15.29
1795329.86 281532.45 -15.35
1795324.02 281537.92 -15.26
1795318.17 281543.39 -15.81
1795312.33 281548.85 -15.62
1795306.49 281554.32 -16.77
1795300.65 281559.78 -16.96
1795294.81 281565.25 -17.59
1795288.97 281570.72 -18.67
1795283.13 281576.18 -18.57
1795277.29 281581.65 -18.70
1795271.44 281587.12 -18.86
1795265.60 281592.58 -16.44
1795259.76 281598.05 -16.47
1795253.92 281603.51 -15.98
1795248.08 281608.98 -15.75
1795242.24 281614.45 -15.32
1795236.40 281619.91 -15.42
1795230.55 281625.38 -15.81
1795224.71 281630.84 -16.01
1795218.87 281636.31 -16.34
1795213.03 281641.78 -16.27
1795207.19 281647.24 -16.60
1795201.35 281652.71 -16.44
1795195.51 281658.18 -16.63
1795189.67 281663.64 -16.83
1795183.82 281669.11 -17.62
1795177.98 281674.57 -18.44
1795172.14 281680.04 -18.44
1795166.30 281685.51 -18.01
1795160.46 281690.97 -18.70
1795154.62 281696.44 -19.39
1795148.78 281701.91 -19.23
1795142.94 281707.37 -18.47
1795137.09 281712.84 -18.47
1795131.25 281718.30 -17.95
1795125.41 281723.77 -18.14
1795119.57 281729.24 -18.24
1795113.73 281734.70 -19.03
1795107.89 281740.17 -19.29
1795102.05 281745.63 -19.91
1797975.59 279067.58 -13.58
1797969.75 279073.04 -13.62
1797963.91 279078.51 -14.14
1797952.22 279089.44 -13.19
1797946.38 279094.91 -12.76
1797940.54 279100.37 -12.34
1797934.70 279105.84 -12.07
1797928.86 279111.31 -11.94
1797923.02 279116.77 -11.94
1797917.18 279122.24 -12.17
1797911.34 279127.70 -12.40
1797905.49 279133.17 -13.45
1797899.65 279138.64 -13.68
1797893.81 279144.10 -13.48
1797887.97 279149.57 -13.02
1797882.13 279155.04 -13.12
1797876.29 279160.50 -12.83
1797870.45 279165.97 -13.29
1797864.61 279171.43 -13.85
1797858.76 279176.90 -13.75
1797852.92 279182.37 -14.14
1797847.08 279187.83 -14.07
1797841.24 279193.30 -13.32
1797835.40 279198.77 -13.02
1797829.56 279204.23 -13.09
1797823.72 279209.70 -13.35
1797817.87 279215.16 -14.04
1797812.03 279220.63 -14.14
1797806.19 279226.10 -14.80
1797800.35 279231.56 -15.35
1797794.51 279237.03 -15.03
1797788.67 279242.49 -13.85
1797782.83 279247.96 -13.45
1797776.99 279253.43 -13.35
1797771.14 279258.89 -13.35
1797765.30 279264.36 -13.55
1797759.46 279269.83 -13.58
1797753.62 279275.29 -13.48
1797747.78 279280.76 -13.68
1797741.94 279286.22 -13.85
1797736.10 279291.69 -14.14
1797730.26 279297.16 -14.34
1797724.41 279302.62 -14.60
1797718.57 279308.09 -15.39
1797712.73 279313.56 -15.78
1797706.89 279319.02 -14.47
1797701.05 279324.49 -13.94
1797695.21 279329.95 -13.65
1797689.37 279335.42 -13.45
1797683.53 279340.89 -13.42
1797677.68 279346.35 -13.62
1797671.84 279351.82 -13.91
1797666.00 279357.28 -14.99
1797660.16 279362.75 -15.32
1797654.32 279368.22 -16.01
1797648.48 279373.68 -14.93
1797642.64 279379.15 -14.40
1797636.79 279384.62 -14.57
1797630.95 279390.08 -14.83
1797625.11 279395.55 -15.09
1797619.27 279401.01 -15.29
1797613.43 279406.48 -15.75
1797607.59 279411.95 -15.26
1797601.75 279417.41 -14.50
1797595.91 279422.88 -14.50
1797590.06 279428.35 -14.27
1797584.22 279433.81 -14.17
1797578.38 279439.28 -13.65
1797572.54 279444.74 -13.88
1797566.70 279450.21 -14.24
1797560.86 279455.68 -14.44
1797555.02 279461.14 -14.67
1797549.18 279466.61 -14.44
1797543.33 279472.07 -14.73
1797537.49 279477.54 -14.83
1797531.65 279483.01 -14.63
1797525.81 279488.47 -14.57
1797519.97 279493.94 -14.57
1797514.13 279499.41 -14.44
1797508.29 279504.87 -14.60
1797502.44 279510.34 -14.96
1797496.60 279515.80 -15.26
1797490.76 279521.27 -15.81
1797484.92 279526.74 -16.01
1797479.08 279532.20 -15.78
1797473.24 279537.67 -16.27
1797467.40 279543.14 -15.88
1797461.56 279548.60 -15.68
1797455.71 279554.07 -15.72
1797449.87 279559.53 -15.72
1797444.03 279565.00 -15.78
1797438.19 279570.47 -15.81
1797432.35 279575.93 -14.67
1797426.51 279581.40 -14.67
1797420.67 279586.86 -14.50
1797414.83 279592.33 -14.34
1797408.98 279597.80 -13.65
1797403.14 279603.26 -13.65
1797397.30 279608.73 -13.81
1797391.46 279614.20 -13.81
1797385.62 279619.66 -13.81
1797379.78 279625.13 -14.07
1797373.94 279630.59 -14.44
1797368.09 279636.06 -14.53
1797362.25 279641.53 -14.83
1797356.41 279646.99 -14.73
1797350.57 279652.46 -14.80
1797344.73 279657.93 -14.86
1797338.89 279663.39 -14.83
1797333.05 279668.86 -14.93
1797327.21 279674.32 -15.19
1797321.36 279679.79 -14.99
1797315.52 279685.26 -14.44
1797309.68 279690.72 -14.44
1797303.84 279696.19 -14.60
1797298.00 279701.65 -14.60
1797292.16 279707.12 -14.40
1797286.32 279712.59 -14.24
1797280.48 279718.05 -14.21
1797274.63 279723.52 -13.91
1797268.79 279728.99 -14.11
1797262.95 279734.45 -14.14
1797257.11 279739.92 -13.58
1797251.27 279745.38 -13.52
1797245.43 279750.85 -13.35
1797239.59 279756.32 -13.35
1797233.75 279761.78 -13.32
1797227.90 279767.25 -12.93
1797222.06 279772.72 -13.02
1797216.22 279778.18 -13.12
1797210.38 279783.65 -13.19
1797204.54 279789.11 -13.45
1797198.70 279794.58 -13.35
1797192.86 279800.05 -13.68
1797187.01 279805.51 -13.81
1797181.17 279810.98 -13.52
1797175.33 279816.44 -13.12
1797169.49 279821.91 -12.80
1797163.65 279827.38 -12.80
1797157.81 279832.84 -12.70
1797151.97 279838.31 -12.70
1797146.13 279843.78 -12.80
1797140.28 279849.24 -13.19
1797134.44 279854.71 -12.86
1797128.60 279860.17 -13.06
1797122.76 279865.64 -12.86
1797116.92 279871.11 -12.96
1797111.08 279876.57 -13.45
1797105.24 279882.04 -13.16
1797099.40 279887.51 -12.80
1797093.55 279892.97 -12.70
1797087.71 279898.44 -12.34
1797081.87 279903.90 -12.40
1797076.03 279909.37 -11.98
1797070.19 279914.84 -11.98
1797064.35 279920.30 -11.65
1797058.51 279925.77 -11.75
1797052.66 279931.23 -11.32
1797046.82 279936.70 -11.42
1797040.98 279942.17 -11.38
1797035.14 279947.63 -11.55
1797029.30 279953.10 -11.42
1797023.46 279958.57 -11.61
1797017.62 279964.03 -11.52
1797011.78 279969.50 -11.84
1797005.93 279974.96 -12.07
1797000.09 279980.43 -12.04
1796994.25 279985.90 -11.94
1796988.41 279991.36 -12.07
1796982.57 279996.83 -11.94
1796976.73 280002.30 -11.65
1796970.89 280007.76 -11.45
1796965.05 280013.23 -11.48
1796959.20 280018.69 -11.38
1796953.36 280024.16 -11.25
1796947.52 280029.63 -11.48
1796941.68 280035.09 -11.38
1796935.84 280040.56 -11.42
1796930.00 280046.02 -11.71
1796924.16 280051.49 -11.61
1796918.32 280056.96 -11.75
1796912.47 280062.42 -12.07
1796906.63 280067.89 -12.01
1796900.79 280073.36 -12.04
1796894.95 280078.82 -11.81
1796889.11 280084.29 -11.52
1796883.27 280089.75 -11.48
1796877.43 280095.22 -11.58
1796871.58 280100.69 -11.78
1796865.74 280106.15 -11.75
1796859.90 280111.62 -11.75
1796854.06 280117.09 -12.30
1796848.22 280122.55 -11.52
1796842.38 280128.02 -11.52
1796836.54 280133.48 -11.68
1796830.70 280138.95 -11.58
1796824.85 280144.42 -11.58
1796819.01 280149.88 -11.29
1796813.17 280155.35 -11.29
1796807.33 280160.81 -11.19
1796801.49 280166.28 -10.99
1796795.65 280171.75 -10.99
1796789.81 280177.21 -10.99
1796783.97 280182.68 -10.73
1796778.12 280188.15 -11.02
1796772.28 280193.61 -10.93
1796766.44 280199.08 -10.73
1796760.60 280204.54 -10.83
1796754.76 280210.01 -10.63
1796748.92 280215.48 -10.24
1796743.08 280220.94 -10.33
1796737.23 280226.41 -9.94
1796731.39 280231.88 -10.33
1796725.55 280237.34 -10.53
1796719.71 280242.81 -10.33
1796713.87 280248.27 -10.43
1796708.03 280253.74 -10.56
1796702.19 280259.21 -10.86
1796696.35 280264.67 -11.15
1796690.50 280270.14 -11.15
1796684.66 280275.60 -11.25
