1803523.51 277125.87 -22.74
1803517.45 277131.09 -22.83
1803511.38 277136.30 -22.80
1803505.31 277141.52 -23.03
1803499.25 277146.73 -22.93
1803493.18 277151.95 -23.33
1803487.11 277157.16 -23.65
1803481.05 277162.38 -23.75
1803474.98 277167.59 -24.25
1803468.91 277172.81 -24.57
1803462.85 277178.02 -24.44
1803456.78 277183.24 -24.57
1803450.71 277188.45 -23.36
1803444.64 277193.67 -23.85
1803438.58 277198.88 -24.57
1803432.51 277204.09 -24.77
1803426.44 277209.31 -24.97
1803420.38 277214.52 -25.23
1803414.31 277219.74 -25.10
1803408.24 277224.95 -24.34
1803402.18 277230.17 -24.08
1803396.11 277235.38 -23.98
1803390.04 277240.60 -23.43
1803383.98 277245.81 -23.00
1803377.91 277251.03 -22.57
1803371.84 277256.24 -22.18
1803365.77 277261.46 -21.49
1803359.71 277266.67 -20.80
1803353.64 277271.89 -20.31
1803347.57 277277.10 -20.31
1803341.51 277282.31 -20.90
1803335.44 277287.53 -17.88
1803329.37 277292.74 -19.09
1806628.91 274467.24 -14.83
1806622.85 274472.46 -13.85
1806616.78 274477.67 -13.85
1806610.71 274482.89 -13.29
1806604.64 274488.10 -13.29
1806598.58 274493.32 -13.62
1806592.51 274498.53 -14.27
1806586.44 274503.75 -14.04
1806580.38 274508.96 -13.68
1806574.31 274514.18 -13.45
1806568.24 274519.39 -13.09
1806562.18 274524.61 -13.09
1806556.11 274529.82 -12.99
1806550.04 274535.04 -12.80
1806543.98 274540.25 -12.60
1806537.91 274545.47 -12.40
1806531.84 274550.68 -12.30
1806525.78 274555.89 -12.11
1806519.71 274561.11 -12.11
1806513.64 274566.32 -12.04
1806507.57 274571.54 -11.45
1806501.51 274576.75 -11.48
1806495.44 274581.97 -11.65
1806489.37 274587.18 -11.48
1806483.31 274592.40 -11.19
1806477.24 274597.61 -11.22
1806471.17 274602.83 -11.42
1806465.11 274608.04 -10.96
1806459.04 274613.26 -10.96
1806452.97 274618.47 -11.25
1806446.91 274623.69 -10.56
1806440.84 274628.90 -10.86
1806434.77 274634.11 -10.66
1806428.70 274639.33 -10.76
1806422.64 274644.54 -10.86
1806416.57 274649.76 -10.60
1806410.50 274654.97 -10.66
1806404.44 274660.19 -10.27
1806398.37 274665.40 -10.17
1806392.30 274670.62 -10.47
1806386.24 274675.83 -9.91
1806380.17 274681.05 -10.01
1806374.10 274686.26 -10.20
1806368.04 274691.48 -9.74
1806361.97 274696.69 -10.01
1806355.90 274701.91 -10.14
1806349.84 274707.12 -9.65
1806343.77 274712.33 -9.42
1806337.70 274717.55 -9.28
1806331.63 274722.76 -9.61
1806325.57 274727.98 -9.15
1806319.50 274733.19 -9.15
1806313.43 274738.41 -9.19
1806307.37 274743.62 -8.99
1806301.30 274748.84 -9.15
1806295.23 274754.05 -9.19
1806289.17 274759.27 -9.06
1806283.10 274764.48 -9.02
1806277.03 274769.70 -9.32
1806270.97 274774.91 -9.06
1806264.90 274780.13 -9.19
1806258.83 274785.34 -9.45
1806252.76 274790.55 -9.45
1806246.70 274795.77 -9.45
1806240.63 274800.98 -9.35
1806234.56 274806.20 -9.35
1806228.50 274811.41 -9.48
1806222.43 274816.63 -9.48
1806216.36 274821.84 -9.61
1806173.90 274858.35 -10.30
1806167.83 274863.56 -9.68
1806161.76 274868.77 -9.68
1806155.69 274873.99 -9.91
1806149.63 274879.20 -9.74
1806143.56 274884.42 -9.71
1806137.49 274889.63 -9.42
1806131.43 274894.85 -9.19
1806125.36 274900.06 -9.48
1806119.29 274905.28 -9.78
1806113.23 274910.49 -9.42
1806107.16 274915.71 -9.51
1806101.09 274920.92 -9.28
1806095.03 274926.14 -9.32
1806088.96 274931.35 -9.55
1806082.89 274936.57 -10.01
1806076.82 274941.78 -9.45
1806070.76 274946.99 -9.61
1806064.69 274952.21 -10.20
1806058.62 274957.42 -9.61
1806052.56 274962.64 -9.81
1806046.49 274967.85 -10.01
1806040.42 274973.07 -9.74
1806034.36 274978.28 -9.74
1806028.29 274983.50 -10.14
1806022.22 274988.71 -9.97
1806016.16 274993.93 -9.68
1806010.09 274999.14 -9.68
1806004.02 275004.36 -9.88
1805997.96 275009.57 -9.78
1805991.89 275014.79 -10.07
1805985.82 275020.00 -9.61
1805979.75 275025.21 -9.51
1805973.69 275030.43 -9.71
1805967.62 275035.64 -10.30
1805961.55 275040.86 -9.81
1805955.49 275046.07 -9.71
1805949.42 275051.29 -9.91
1805943.35 275056.50 -10.30
1805937.29 275061.72 -9.91
1805931.22 275066.93 -9.91
1805925.15 275072.15 -10.20
1805919.09 275077.36 -10.01
1805913.02 275082.58 -9.91
1805906.95 275087.79 -10.40
1805900.88 275093.01 -10.01
1805894.82 275098.22 -10.01
1805888.75 275103.43 -10.27
1805882.68 275108.65 -10.20
1805876.62 275113.86 -10.07
1805870.55 275119.08 -10.10
1805864.48 275124.29 -9.78
1805858.42 275129.51 -9.78
1805852.35 275134.72 -9.91
1805846.28 275139.94 -9.81
1805840.22 275145.15 -9.84
1805834.15 275150.37 -9.88
1805828.08 275155.58 -9.71
1805822.02 275160.80 -9.58
1805815.95 275166.01 -9.81
1805809.88 275171.23 -9.91
1805803.81 275176.44 -9.71
1805797.75 275181.65 -10.10
1805791.68 275186.87 -10.10
1805785.61 275192.08 -10.20
1805779.55 275197.30 -10.10
1805773.48 275202.51 -10.40
1805767.41 275207.73 -10.40
1805761.35 275212.94 -10.63
1805755.28 275218.16 -10.63
1805749.21 275223.37 -10.86
1805743.15 275228.59 -10.63
1805737.08 275233.80 -10.76
1805731.01 275239.02 -10.96
1805724.94 275244.23 -11.25
1805718.88 275249.45 -11.35
1805712.81 275254.66 -11.35
1805706.74 275259.87 -11.45
1805700.68 275265.09 -11.84
1805694.61 275270.30 -11.94
1805688.54 275275.52 -11.84
1805682.48 275280.73 -12.07
1805676.41 275285.95 -12.07
1805670.34 275291.16 -12.24
1805664.28 275296.38 -12.40
1805658.21 275301.59 -12.27
1805652.14 275306.81 -12.37
1805646.08 275312.02 -12.57
1805640.01 275317.24 -12.57
1805633.94 275322.45 -12.89
1805627.87 275327.67 -12.70
1805621.81 275332.88 -12.53
1805615.74 275338.09 -12.63
1805609.67 275343.31 -12.99
1805603.61 275348.52 -12.99
1805597.54 275353.74 -13.19
1805591.47 275358.95 -12.96
1805585.41 275364.17 -13.06
1805579.34 275369.38 -13.32
1805573.27 275374.60 -13.32
1805567.21 275379.81 -13.45
1805561.14 275385.03 -13.25
1805555.07 275390.24 -13.29
1805549.01 275395.46 -13.06
1805542.94 275400.67 -13.16
1805536.87 275405.89 -12.86
1805530.80 275411.10 -12.66
1805524.74 275416.31 -12.83
1805518.67 275421.53 -12.96
1805512.60 275426.74 -12.83
1805506.54 275431.96 -12.83
1805500.47 275437.17 -13.02
1805494.40 275442.39 -12.99
1805488.34 275447.60 -13.19
1805482.27 275452.82 -13.58
1805476.20 275458.03 -13.48
1805470.14 275463.25 -13.48
1805464.07 275468.46 -13.58
1805458.00 275473.68 -13.71
1805451.93 275478.89 -13.62
1805445.87 275484.11 -13.62
1805439.80 275489.32 -13.94
1805433.73 275494.53 -13.91
1805427.67 275499.75 -13.85
1805421.60 275504.96 -13.98
1805415.53 275510.18 -14.14
1805409.47 275515.39 -14.30
1805403.40 275520.61 -14.47
1805397.33 275525.82 -14.37
1805391.27 275531.04 -14.50
1805385.20 275536.25 -14.40
1805379.13 275541.47 -14.50
1805373.07 275546.68 -14.50
1805367.00 275551.90 -14.60
1805360.93 275557.11 -14.80
1805354.86 275562.33 -14.89
1805348.80 275567.54 -14.89
1805342.73 275572.75 -14.70
1805336.66 275577.97 -14.89
1805330.60 275583.18 -15.09
1805324.53 275588.40 -14.99
1805318.46 275593.61 -14.99
1805312.40 275598.83 -14.99
1805306.33 275604.04 -15.29
1805300.26 275609.26 -15.29
1805294.20 275614.47 -15.55
1805288.13 275619.69 -15.65
1805282.06 275624.90 -15.58
1805275.99 275630.12 -15.78
1805269.93 275635.33 -15.85
1805263.86 275640.55 -15.94
1805257.79 275645.76 -16.04
1805251.73 275650.98 -16.40
1805245.66 275656.19 -16.77
1805239.59 275661.40 -16.77
1805233.53 275666.62 -16.80
1805227.46 275671.83 -16.60
1805221.39 275677.05 -16.73
1805215.33 275682.26 -16.63
1805209.26 275687.48 -16.90
1805203.19 275692.69 -16.77
1805197.13 275697.91 -16.63
1805191.06 275703.12 -16.57
1805184.99 275708.34 -16.63
1805178.92 275713.55 -16.63
1805172.86 275718.77 -16.70
1805166.79 275723.98 -16.67
1805160.72 275729.20 -16.63
1805154.66 275734.41 -16.67
1805148.59 275739.62 -16.67
1805142.52 275744.84 -16.77
1805136.46 275750.05 -16.67
1805130.39 275755.27 -16.57
1805124.32 275760.48 -16.67
1805118.26 275765.70 -16.93
1805112.19 275770.91 -17.03
1805106.12 275776.13 -17.22
1805100.05 275781.34 -17.32
1805093.99 275786.56 -17.22
1805087.92 275791.77 -17.42
1805081.85 275796.99 -17.62
1805075.79 275802.20 -17.85
1805069.72 275807.42 -18.01
1805063.65 275812.63 -17.85
1805057.59 275817.84 -18.14
1805051.52 275823.06 -18.14
1805045.45 275828.27 -18.27
1805039.39 275833.49 -18.14
1805033.32 275838.70 -18.14
1805027.25 275843.92 -18.37
1805021.19 275849.13 -18.34
1805015.12 275854.35 -18.21
1805009.05 275859.56 -18.14
1805002.98 275864.78 -18.18
1804996.92 275869.99 -18.11
1804990.85 275875.21 -18.08
1804984.78 275880.42 -18.27
1804978.72 275885.64 -18.24
1804972.65 275890.85 -18.24
1804966.58 275896.06 -18.24
1804960.52 275901.28 -18.34
1804954.45 275906.49 -18.44
1804948.38 275911.71 -18.44
1804942.32 275916.92 -18.64
1804936.25 275922.14 -18.67
1804930.18 275927.35 -19.00
1804924.11 275932.57 -19.09
1804918.05 275937.78 -19.39
1804911.98 275943.00 -19.39
1804905.91 275948.21 -19.16
1804899.85 275953.43 -18.83
1804893.78 275958.64 -18.83
1804887.71 275963.86 -19.03
1804881.65 275969.07 -19.03
1804875.58 275974.28 -19.03
1804869.51 275979.50 -19.06
1804863.45 275984.71 -19.06
1804857.38 275989.93 -18.86
1804851.31 275995.14 -19.06
1804845.25 276000.36 -19.06
1804839.18 276005.57 -19.39
1804833.11 276010.79 -19.59
1804827.04 276016.00 -19.49
1804820.98 276021.22 -19.69
1804814.91 276026.43 -19.88
1804808.84 276031.65 -19.98
1804802.78 276036.86 -20.11
1804796.71 276042.08 -20.31
1804790.64 276047.29 -20.21
1804784.58 276052.50 -20.31
1804778.51 276057.72 -20.41
1804772.44 276062.93 -20.31
1804766.38 276068.15 -20.24
1804760.31 276073.36 -20.11
1804754.24 276078.58 -20.11
1804748.17 276083.79 -20.11
1804742.11 276089.01 -20.11
1804736.04 276094.22 -19.98
1804729.97 276099.44 -20.11
1804723.91 276104.65 -20.31
1804717.84 276109.87 -20.37
1804711.77 276115.08 -20.28
1804705.71 276120.30 -20.37
1804699.64 276125.51 -20.57
1804693.57 276130.72 -20.67
1804687.51 276135.94 -20.37
1804681.44 276141.15 -20.77
1804675.37 276146.37 -20.67
1804669.31 276151.58 -20.67
1804663.24 276156.80 -20.83
1804657.17 276162.01 -20.87
1804651.10 276167.23 -20.96
1804645.04 276172.44 -20.73
1804638.97 276177.66 -20.93
1804632.90 276182.87 -21.03
1804626.84 276188.09 -20.54
1804620.77 276193.30 -21.03
1804614.70 276198.52 -20.93
1804608.64 276203.73 -21.13
1804602.57 276208.94 -20.93
1804596.50 276214.16 -20.93
1804590.44 276219.37 -21.16
1804584.37 276224.59 -21.06
1804578.30 276229.80 -21.16
1804572.23 276235.02 -21.16
1804566.17 276240.23 -21.06
1804560.10 276245.45 -21.03
1804554.03 276250.66 -20.96
1804547.97 276255.88 -21.26
1804541.90 276261.09 -21.26
1804535.83 276266.31 -21.36
1804529.77 276271.52 -21.46
1804523.70 276276.74 -21.42
1804517.63 276281.95 -21.26
1804511.57 276287.16 -21.46
1804505.50 276292.38 -21.59
1804499.43 276297.59 -21.49
1804493.37 276302.81 -21.39
1804487.30 276308.02 -21.39
1804481.23 276313.24 -21.49
1804475.16 276318.45 -21.29
1804469.10 276323.67 -21.39
1804463.03 276328.88 -21.16
1804456.96 276334.10 -21.39
1804450.90 276339.31 -21.52
1804444.83 276344.53 -21.59
1804438.76 276349.74 -21.46
1804432.70 276354.96 -21.39
1804426.63 276360.17 -21.39
1804420.56 276365.38 -21.52
1804414.50 276370.60 -21.49
1804408.43 276375.81 -21.49
1804402.36 276381.03 -21.59
1804396.29 276386.24 -21.65
1804390.23 276391.46 -21.75
1804384.16 276396.67 -21.75
1804378.09 276401.89 -21.95
1804372.03 276407.10 -21.88
1804365.96 276412.32 -21.88
1804359.89 276417.53 -22.31
1804353.83 276422.75 -21.98
1804347.76 276427.96 -21.88
1804341.69 276433.18 -21.98
1804335.63 276438.39 -22.18
1804329.56 276443.60 -22.31
1804323.49 276448.82 -22.31
1804317.43 276454.03 -22.18
1804311.36 276459.25 -22.15
1804305.29 276464.46 -22.28
1804299.22 276469.68 -22.60
1804293.16 276474.89 -22.41
1804287.09 276480.11 -22.47
1804281.02 276485.32 -22.28
1804274.96 276490.54 -22.47
1804268.89 276495.75 -22.54
1804262.82 276500.97 -22.54
1804256.76 276506.18 -22.74
1804250.69 276511.40 -22.93
1804244.62 276516.61 -23.10
1804238.56 276521.82 -23.16
1804232.49 276527.04 -23.10
1804226.42 276532.25 -23.29
1804220.35 276537.47 -23.29
1804214.29 276542.68 -23.29
1804208.22 276547.90 -23.39
1804202.15 276553.11 -23.59
1804196.09 276558.33 -23.85
1804190.02 276563.54 -24.05
1804183.95 276568.76 -24.28
1804177.89 276573.97 -24.28
1804171.82 276579.19 -24.28
1804165.75 276584.40 -24.67
1804159.69 276589.62 -24.80
1804153.62 276594.83 -25.00
1804147.55 276600.04 -25.36
1804141.49 276605.26 -25.39
1804135.42 276610.47 -25.39
1804129.35 276615.69 -25.66
1804123.28 276620.90 -25.75
1804117.22 276626.12 -25.75
1804111.15 276631.33 -25.92
1804105.08 276636.55 -25.85
1804099.02 276641.76 -25.69
1804092.95 276646.98 -25.69
1804086.88 276652.19 -25.75
1804080.82 276657.41 -25.75
1804074.75 276662.62 -25.79
1804068.68 276667.84 -25.49
1804062.62 276673.05 -25.00
1804056.55 276678.26 -25.00
1804050.48 276683.48 -25.10
1804044.41 276688.69 -25.00
1804038.35 276693.91 -25.00
1804032.28 276699.12 -24.77
1804026.21 276704.34 -24.77
1804020.15 276709.55 -24.77
1804014.08 276714.77 -24.67
1804008.01 276719.98 -24.67
1804001.95 276725.20 -24.67
1803995.88 276730.41 -24.67
1803989.81 276735.63 -24.44
1803983.75 276740.84 -24.34
1803977.68 276746.06 -24.31
1803971.61 276751.27 -24.15
1803965.55 276756.49 -24.15
1803959.48 276761.70 -24.31
1803953.41 276766.91 -24.21
1803947.34 276772.13 -24.21
1803941.28 276777.34 -24.21
1803935.21 276782.56 -24.44
1803929.14 276787.77 -24.08
1803923.08 276792.99 -23.95
1803917.01 276798.20 -23.75
1803910.94 276803.42 -23.62
1803904.88 276808.63 -23.72
1803898.81 276813.85 -23.72
1803892.74 276819.06 -23.75
1803886.68 276824.28 -23.65
1803880.61 276829.49 -23.46
1803874.54 276834.71 -23.52
1803868.47 276839.92 -23.43
1803862.41 276845.13 -23.29
1803856.34 276850.35 -23.26
1803850.27 276855.56 -23.20
1803844.21 276860.78 -23.26
1803838.14 276865.99 -23.20
1803832.07 276871.21 -23.10
1803826.01 276876.42 -23.00
1803819.94 276881.64 -22.90
1803813.87 276886.85 -21.92
1803807.81 276892.07 -22.90
1803801.74 276897.28 -22.93
1803795.67 276902.50 -23.10
1803789.61 276907.71 -23.10
1803783.54 276912.93 -23.03
1803777.47 276918.14 -23.06
1803771.40 276923.35 -22.18
1803765.34 276928.57 -22.18
1803759.27 276933.78 -22.18
1803753.20 276939.00 -21.98
1803747.14 276944.21 -22.18
1803741.07 276949.43 -21.82
1803735.00 276954.64 -21.72
1803728.94 276959.86 -21.82
1803722.87 276965.07 -21.75
1803716.80 276970.29 -21.65
1803710.74 276975.50 -21.65
1803704.67 276980.72 -21.75
1803698.60 276985.93 -21.88
1803692.54 276991.15 -21.95
1803686.47 276996.36 -21.72
1803680.40 277001.57 -21.82
1803674.33 277006.79 -21.85
1803668.27 277012.00 -21.72
1803662.20 277017.22 -21.75
1803656.13 277022.43 -21.72
1803650.07 277027.65 -21.82
1803644.00 277032.86 -21.72
1803637.93 277038.08 -21.78
1803631.87 277043.29 -22.11
1803625.80 277048.51 -22.01
1803619.73 277053.72 -22.18
1803613.67 277058.94 -22.08
1803607.60 277064.15 -22.08
1803601.53 277069.37 -22.18
1803595.46 277074.58 -22.31
1803589.40 277079.79 -22.08
1803583.33 277085.01 -22.18
1803577.26 277090.22 -22.41
1803571.20 277095.44 -22.51
1803565.13 277100.65 -22.70
1803559.06 277105.87 -22.64
1803553.00 277111.08 -22.83
1803546.93 277116.30 -22.74
1803540.86 277121.51 -23.10
1803534.80 277126.73 -22.90
1803528.73 277131.94 -23.10
1803522.66 277137.16 -23.10
1803516.60 277142.37 -23.20
1803510.53 277147.59 -23.20
1803504.46 277152.80 -23.26
1803498.39 277158.01 -23.46
1803492.33 277163.23 -23.56
1803486.26 277168.44 -23.82
1803480.19 277173.66 -24.11
1803474.13 277178.87 -23.92
1803468.06 277184.09 -24.05
1803461.99 277189.30 -24.11
1803455.93 277194.52 -24.15
1803449.86 277199.73 -23.82
1803443.79 277204.95 -23.82
1803437.73 277210.16 -23.82
1803431.66 277215.38 -23.82
1803425.59 277220.59 -23.85
1803419.52 277225.81 -23.06
1803413.46 277231.02 -24.25
1806621.99 274483.74 -14.44
1806615.93 274488.96 -14.07
1806609.86 274494.17 -13.22
1806603.79 274499.39 -13.58
1806597.73 274504.60 -14.30
1806591.66 274509.81 -14.04
1806585.59 274515.03 -14.04
1806579.52 274520.24 -13.94
1806573.46 274525.46 -14.04
1806567.39 274530.67 -13.55
1806561.32 274535.89 -13.55
1806555.26 274541.10 -12.99
1806549.19 274546.32 -12.99
1806543.12 274551.53 -12.99
1806537.06 274556.75 -12.60
1806530.99 274561.96 -12.30
1806524.92 274567.18 -12.30
1806518.86 274572.39 -12.11
1806512.79 274577.61 -12.14
1806506.72 274582.82 -12.04
1806500.66 274588.03 -12.11
1806494.59 274593.25 -11.84
1806488.52 274598.46 -11.42
1806482.45 274603.68 -11.52
1806476.39 274608.89 -11.55
1806470.32 274614.11 -11.19
1806464.25 274619.32 -11.19
1806458.19 274624.54 -11.48
1806452.12 274629.75 -11.38
1806446.05 274634.97 -11.12
1806439.99 274640.18 -10.93
1806433.92 274645.40 -11.12
1806427.85 274650.61 -11.12
1806421.79 274655.83 -10.66
1806415.72 274661.04 -10.56
1806409.65 274666.25 -10.60
1806403.59 274671.47 -10.70
1806397.52 274676.68 -10.83
1806391.45 274681.90 -10.33
1806385.38 274687.11 -10.07
1806379.32 274692.33 -10.37
1806373.25 274697.54 -10.07
1806367.18 274702.76 -10.17
1806361.12 274707.97 -10.20
1806355.05 274713.19 -9.71
1806348.98 274718.40 -9.61
1806342.92 274723.62 -9.32
1806336.85 274728.83 -9.61
1806330.78 274734.05 -9.35
1806324.72 274739.26 -9.32
1806318.65 274744.47 -9.28
1806312.58 274749.69 -9.02
1806306.51 274754.90 -9.22
1806300.45 274760.12 -9.09
1806294.38 274765.33 -9.19
1806288.31 274770.55 -9.09
1806282.25 274775.76 -9.32
1806276.18 274780.98 -9.28
1806270.11 274786.19 -9.25
1806264.05 274791.41 -9.15
1806257.98 274796.62 -9.25
1806251.91 274801.84 -9.22
1806245.85 274807.05 -9.51
1806239.78 274812.27 -9.42
1806233.71 274817.48 -9.71
1806227.65 274822.69 -9.48
1806221.58 274827.91 -9.48
1806215.51 274833.12 -9.38
1806209.44 274838.34 -9.32
1806203.38 274843.55 -9.55
1806197.31 274848.77 -9.84
1806191.24 274853.98 -9.84
1806185.18 274859.20 -9.61
1806179.11 274864.41 -9.65
1806142.71 274895.70 -9.55
1806136.64 274900.91 -9.45
1806130.57 274906.13 -9.84
1806124.51 274911.34 -9.84
1806118.44 274916.56 -10.04
1806112.37 274921.77 -10.30
1806106.31 274926.99 -9.55
1806100.24 274932.20 -9.51
1806094.17 274937.42 -9.81
1806088.11 274942.63 -9.58
1806082.04 274947.85 -9.48
1806075.97 274953.06 -9.68
1806069.91 274958.28 -10.27
1806063.84 274963.49 -9.48
1806057.77 274968.71 -9.88
1806051.71 274973.92 -10.14
1806045.64 274979.13 -9.51
1806039.57 274984.35 -9.51
1806033.50 274989.56 -9.91
1806027.44 274994.78 -9.84
1806021.37 274999.99 -9.65
1806015.30 275005.21 -9.84
1806009.24 275010.42 -10.17
1806003.17 275015.64 -10.27
1805997.10 275020.85 -10.27
1805991.04 275026.07 -9.97
1805984.97 275031.28 -9.81
1805978.90 275036.50 -9.71
1805972.84 275041.71 -10.10
1805966.77 275046.93 -9.91
1805960.70 275052.14 -9.71
1805954.63 275057.35 -9.81
1805948.57 275062.57 -10.10
1805942.50 275067.78 -9.81
1805936.43 275073.00 -9.91
1805930.37 275078.21 -9.91
1805924.30 275083.43 -10.10
1805918.23 275088.64 -10.01
1805912.17 275093.86 -9.97
1805906.10 275099.07 -10.01
1805900.03 275104.29 -10.01
1805893.97 275109.50 -10.14
1805887.90 275114.72 -10.10
1805881.83 275119.93 -10.10
1805875.77 275125.15 -9.91
1805869.70 275130.36 -9.81
1805863.63 275135.57 -9.61
1805857.56 275140.79 -9.78
1805851.50 275146.00 -9.78
1805845.43 275151.22 -9.58
1805839.36 275156.43 -9.71
1805833.30 275161.65 -9.61
1805827.23 275166.86 -9.71
1805821.16 275172.08 -9.65
1805815.10 275177.29 -9.74
1805809.03 275182.51 -10.20
1805802.96 275187.72 -10.20
1805796.90 275192.94 -10.24
1805790.83 275198.15 -10.24
1805784.76 275203.37 -10.24
1805778.69 275208.58 -10.40
1805772.63 275213.79 -10.56
1805766.56 275219.01 -10.56
1805760.49 275224.22 -10.76
1805754.43 275229.44 -10.99
1805748.36 275234.65 -11.09
1805742.29 275239.87 -11.12
1805736.23 275245.08 -11.19
1805730.16 275250.30 -11.38
1805724.09 275255.51 -11.48
1805718.03 275260.73 -11.61
1805711.96 275265.94 -11.71
1805705.89 275271.16 -11.75
1805699.83 275276.37 -11.91
1805693.76 275281.59 -11.88
1805687.69 275286.80 -12.30
1805681.62 275292.02 -12.11
1805675.56 275297.23 -12.27
1805669.49 275302.44 -12.43
1805663.42 275307.66 -12.53
1805657.36 275312.87 -12.99
1805651.29 275318.09 -13.06
1805645.22 275323.30 -13.06
1805639.16 275328.52 -12.57
1805633.09 275333.73 -12.76
1805627.02 275338.95 -12.83
1805620.96 275344.16 -12.86
1805614.89 275349.38 -13.16
1805608.82 275354.59 -13.16
1805602.75 275359.81 -13.06
1805596.69 275365.02 -13.16
1805590.62 275370.24 -13.06
1805584.55 275375.45 -13.39
1805578.49 275380.66 -13.25
1805572.42 275385.88 -13.19
1805566.35 275391.09 -13.09
1805560.29 275396.31 -13.12
1805554.22 275401.52 -13.12
1805548.15 275406.74 -12.80
1805542.09 275411.95 -12.89
1805536.02 275417.17 -12.93
1805529.95 275422.38 -13.02
1805523.89 275427.60 -12.73
1805517.82 275432.81 -12.83
1805511.75 275438.03 -12.96
1805505.68 275443.24 -13.16
1805499.62 275448.46 -13.12
1805493.55 275453.67 -13.22
1805487.48 275458.88 -13.52
1805481.42 275464.10 -13.52
1805475.35 275469.31 -13.62
1805469.28 275474.53 -13.62
1805463.22 275479.74 -13.75
1805457.15 275484.96 -13.55
1805451.08 275490.17 -13.65
1805445.02 275495.39 -13.75
1805438.95 275500.60 -13.94
1805432.88 275505.82 -13.78
1805426.81 275511.03 -13.98
1805420.75 275516.25 -14.37
1805414.68 275521.46 -14.24
1805408.61 275526.68 -14.34
1805402.55 275531.89 -14.27
1805396.48 275537.10 -14.37
1805390.41 275542.32 -14.60
1805384.35 275547.53 -14.47
1805378.28 275552.75 -14.60
1805372.21 275557.96 -14.60
1805366.15 275563.18 -14.67
1805360.08 275568.39 -14.83
1805354.01 275573.61 -14.83
1805347.95 275578.82 -15.06
1805341.88 275584.04 -14.99
1805335.81 275589.25 -14.99
1805329.74 275594.47 -15.06
1805323.68 275599.68 -15.12
1805317.61 275604.90 -15.06
1805311.54 275610.11 -15.26
1805305.48 275615.32 -15.26
1805299.41 275620.54 -15.52
1805293.34 275625.75 -15.42
1805287.28 275630.97 -15.65
1805281.21 275636.18 -15.85
1805275.14 275641.40 -15.88
1805269.08 275646.61 -15.98
1805263.01 275651.83 -16.17
1805256.94 275657.04 -16.34
1805250.87 275662.26 -16.80
1805244.81 275667.47 -16.57
1805238.74 275672.69 -16.57
1805232.67 275677.90 -16.63
1805226.61 275683.12 -16.67
1805220.54 275688.33 -16.34
1805214.47 275693.54 -16.34
1805208.41 275698.76 -16.47
1805202.34 275703.97 -16.54
1805196.27 275709.19 -16.50
1805190.21 275714.40 -16.60
1805184.14 275719.62 -16.63
1805178.07 275724.83 -16.50
1805172.01 275730.05 -16.67
1805165.94 275735.26 -16.67
1805159.87 275740.48 -17.03
1805153.80 275745.69 -16.83
1805147.74 275750.91 -17.13
1805135.60 275761.34 -16.67
1805129.54 275766.55 -16.67
1805123.47 275771.76 -16.77
1805117.40 275776.98 -16.77
1805111.34 275782.19 -16.63
1805105.27 275787.41 -16.83
1805099.20 275792.62 -16.93
1805093.14 275797.84 -17.29
1805087.07 275803.05 -17.29
1805081.00 275808.27 -17.59
1805074.93 275813.48 -17.72
1805068.87 275818.70 -17.91
1805062.80 275823.91 -18.08
1805056.73 275829.13 -18.18
1805050.67 275834.34 -18.21
1805044.60 275839.56 -18.18
1805038.53 275844.77 -18.27
1805032.47 275849.98 -18.18
1805026.40 275855.20 -18.27
1805020.33 275860.41 -18.14
1805014.27 275865.63 -18.11
1805008.20 275870.84 -18.21
1805002.13 275876.06 -18.21
1804996.07 275881.27 -18.41
1804990.00 275886.49 -18.31
1804983.93 275891.70 -18.31
1804977.86 275896.92 -18.34
1804971.80 275902.13 -18.14
1804965.73 275907.35 -18.14
1804959.66 275912.56 -18.34
1804953.60 275917.78 -18.44
1804947.53 275922.99 -18.57
1804941.46 275928.20 -18.47
1804935.40 275933.42 -18.57
1804929.33 275938.63 -18.83
1804923.26 275943.85 -19.03
1804917.20 275949.06 -18.83
1804911.13 275954.28 -18.83
1804905.06 275959.49 -19.03
1804898.99 275964.71 -19.09
1804892.93 275969.92 -19.29
1804886.86 275975.14 -19.29
1804880.79 275980.35 -19.36
1804874.73 275985.57 -19.23
1804868.66 275990.78 -19.29
1804862.59 275996.00 -19.42
1804856.53 276001.21 -19.32
1804850.46 276006.42 -19.52
1804844.39 276011.64 -19.62
1804838.33 276016.85 -19.52
1804832.26 276022.07 -19.62
1804826.19 276027.28 -19.78
1804820.13 276032.50 -19.88
1804814.06 276037.71 -19.88
1804807.99 276042.93 -20.21
1804801.92 276048.14 -20.31
1804795.86 276053.36 -20.21
1804789.79 276058.57 -20.24
1804783.72 276063.79 -20.37
1804777.66 276069.00 -20.31
1804771.59 276074.22 -20.21
1804765.52 276079.43 -19.98
1804759.46 276084.64 -20.21
1804753.39 276089.86 -20.24
1804747.32 276095.07 -20.08
1804741.26 276100.29 -20.08
1804735.19 276105.50 -20.24
1804729.12 276110.72 -20.44
1804723.06 276115.93 -20.34
1804716.99 276121.15 -20.24
1804710.92 276126.36 -20.34
1804704.85 276131.58 -20.54
1804698.79 276136.79 -20.54
1804692.72 276142.01 -20.54
1804686.65 276147.22 -20.83
1804680.59 276152.44 -20.93
1804674.52 276157.65 -21.10
1804668.45 276162.86 -21.23
1804662.39 276168.08 -21.23
1804656.32 276173.29 -21.13
1804650.25 276178.51 -21.23
1804644.19 276183.72 -21.33
1804638.12 276188.94 -21.23
1804632.05 276194.15 -21.23
1804625.98 276199.37 -21.29
1804619.92 276204.58 -21.16
1804613.85 276209.80 -21.26
1804607.78 276215.01 -21.26
1804601.72 276220.23 -21.10
1804595.65 276225.44 -21.10
1804589.58 276230.66 -21.10
1804583.52 276235.87 -21.10
1804577.45 276241.08 -21.19
1804571.38 276246.30 -21.10
1804565.32 276251.51 -21.06
1804559.25 276256.73 -21.10
1804553.18 276261.94 -21.29
1804547.12 276267.16 -21.39
1804541.05 276272.37 -21.29
1804534.98 276277.59 -21.39
1804528.91 276282.80 -21.26
1804522.85 276288.02 -21.39
1804516.78 276293.23 -21.39
1804510.71 276298.45 -21.42
1804504.65 276303.66 -21.42
1804498.58 276308.88 -21.42
1804492.51 276314.09 -21.33
1804486.45 276319.30 -21.33
1804480.38 276324.52 -21.36
1804474.31 276329.73 -21.36
1804468.25 276334.95 -21.52
1804462.18 276340.16 -21.46
1804456.11 276345.38 -21.56
1804450.04 276350.59 -21.59
1804443.98 276355.81 -21.72
1804437.91 276361.02 -21.62
1804431.84 276366.24 -21.75
1804425.78 276371.45 -21.65
1804419.71 276376.67 -21.72
1804413.64 276381.88 -21.92
1804407.58 276387.10 -22.01
1804401.51 276392.31 -22.05
1804395.44 276397.53 -21.72
1804389.38 276402.74 -21.72
1804383.31 276407.95 -21.82
1804377.24 276413.17 -21.95
1804371.18 276418.38 -21.85
1804365.11 276423.60 -22.18
1804359.04 276428.81 -21.98
1804352.97 276434.03 -21.88
1804346.91 276439.24 -22.15
1804340.84 276444.46 -22.18
1804334.77 276449.67 -22.28
1804328.71 276454.89 -22.41
1804322.64 276460.10 -22.77
1804316.57 276465.32 -22.87
1804310.51 276470.53 -22.80
1804304.44 276475.75 -22.70
1804298.37 276480.96 -22.80
1804292.31 276486.17 -22.87
1804286.24 276491.39 -22.83
1804280.17 276496.60 -22.54
1804274.10 276501.82 -22.64
1804268.04 276507.03 -23.00
1804261.97 276512.25 -22.80
1804255.90 276517.46 -22.80
1804249.84 276522.68 -23.00
1804243.77 276527.89 -23.10
1804237.70 276533.11 -23.13
1804231.64 276538.32 -23.23
1804225.57 276543.54 -23.29
1804219.50 276548.75 -23.36
1804213.44 276553.97 -23.75
1804207.37 276559.18 -23.85
1804201.30 276564.39 -24.02
1804195.24 276569.61 -24.11
1804189.17 276574.82 -24.34
1804183.10 276580.04 -24.44
1804177.03 276585.25 -24.64
1804170.97 276590.47 -24.67
1804164.90 276595.68 -24.97
1804158.83 276600.90 -25.16
1804152.77 276606.11 -25.33
1804146.70 276611.33 -25.52
1803849.42 276866.85 -23.39
1803843.36 276872.06 -23.49
1803837.29 276877.27 -23.43
1803831.22 276882.49 -23.33
1803825.15 276887.70 -23.52
1803819.09 276892.92 -23.49
1803813.02 276898.13 -23.49
1803806.95 276903.35 -23.36
1803800.89 276908.56 -23.46
1803794.82 276913.78 -23.20
1803788.75 276918.99 -23.16
1803782.69 276924.21 -23.20
1803776.62 276929.42 -23.20
1803770.55 276934.64 -23.10
1803764.49 276939.85 -22.90
1803758.42 276945.07 -22.87
1803752.35 276950.28 -22.83
1803746.28 276955.49 -22.83
1803740.22 276960.71 -22.64
1803734.15 276965.92 -22.51
1803728.08 276971.14 -22.21
1803722.02 276976.35 -21.95
1803715.95 276981.57 -21.36
1803709.88 276986.78 -21.36
1803703.82 276992.00 -20.87
1803697.75 276997.21 -20.77
1803691.68 277002.43 -22.31
1803685.62 277007.64 -22.31
1803679.55 277012.86 -22.31
1803673.48 277018.07 -22.31
1803667.42 277023.29 -22.44
1803661.35 277028.50 -22.28
1803655.28 277033.71 -22.21
1803649.21 277038.93 -22.15
1803643.15 277044.14 -22.24
1803637.08 277049.36 -22.28
1803631.01 277054.57 -22.28
1803624.95 277059.79 -22.15
1803618.88 277065.00 -22.15
1803612.81 277070.22 -22.57
1803606.75 277075.43 -22.54
1803600.68 277080.65 -22.67
1803594.61 277085.86 -22.77
1803588.55 277091.08 -22.77
1803582.48 277096.29 -22.67
1803576.41 277101.51 -22.70
1803570.34 277106.72 -22.77
1803564.28 277111.93 -22.77
1803558.21 277117.15 -22.87
1803552.14 277122.36 -22.87
1803546.08 277127.58 -22.87
1803540.01 277132.79 -22.87
1803533.94 277138.01 -22.87
1803527.88 277143.22 -22.87
1803521.81 277148.44 -23.10
1803515.74 277153.65 -23.10
1803509.68 277158.87 -23.23
1803503.61 277164.08 -23.43
1803497.54 277169.30 -23.52
1803491.48 277174.51 -22.38
1803485.41 277179.73 -23.10
1803479.34 277184.94 -23.20
1803473.27 277190.15 -23.26
1803467.21 277195.37 -23.26
1803461.14 277200.58 -23.43
1803455.07 277205.80 -23.56
1806609.01 274505.45 -12.50
1806602.94 274510.67 -12.80
1806596.87 274515.88 -14.37
1806590.81 274521.10 -14.67
1806584.74 274526.31 -14.24
1806578.67 274531.53 -14.24
1806572.61 274536.74 -14.21
1806566.54 274541.95 -14.30
1806560.47 274547.17 -13.94
1806554.41 274552.38 -13.25
1806548.34 274557.60 -13.45
1806542.27 274562.81 -12.80
1806536.20 274568.03 -12.70
1806530.14 274573.24 -12.89
1806524.07 274578.46 -12.60
1806518.00 274583.67 -12.40
1806511.94 274588.89 -11.94
1806505.87 274594.10 -11.94
1806499.80 274599.32 -11.75
1806493.74 274604.53 -11.81
1806487.67 274609.75 -12.11
1806481.60 274614.96 -11.84
1806475.54 274620.17 -11.42
1806469.47 274625.39 -11.35
1806463.40 274630.60 -11.65
1806457.33 274635.82 -11.29
1806451.27 274641.03 -11.19
1806445.20 274646.25 -11.35
1806439.13 274651.46 -11.19
1806433.07 274656.68 -11.38
1806427.00 274661.89 -10.73
1806420.93 274667.11 -10.73
1806414.87 274672.32 -11.02
1806408.80 274677.54 -10.86
1806402.73 274682.75 -10.47
1806396.67 274687.97 -10.50
1806390.60 274693.18 -10.50
1806384.53 274698.39 -10.76
1806378.47 274703.61 -10.30
1806372.40 274708.82 -10.40
1806366.33 274714.04 -10.33
1806360.26 274719.25 -9.78
1806354.20 274724.47 -9.78
1806348.13 274729.68 -9.71
1806342.06 274734.90 -9.71
1806336.00 274740.11 -9.51
1806329.93 274745.33 -9.42
1806323.86 274750.54 -9.32
1806317.80 274755.76 -9.19
1806311.73 274760.97 -9.28
1806305.66 274766.19 -9.35
1806299.60 274771.40 -9.32
1806293.53 274776.61 -9.32
1806287.46 274781.83 -9.28
1806281.39 274787.04 -9.09
1806275.33 274792.26 -9.25
1806269.26 274797.47 -9.28
1806263.19 274802.69 -9.32
1806257.13 274807.90 -9.32
1806251.06 274813.12 -9.28
1806244.99 274818.33 -9.19
1806238.93 274823.55 -9.19
1806232.86 274828.76 -9.19
1806226.79 274833.98 -9.48
1806220.73 274839.19 -9.58
1806214.66 274844.41 -9.25
1806208.59 274849.62 -9.45
1806202.53 274854.83 -9.84
1806196.46 274860.05 -10.04
1806190.39 274865.26 -9.71
1806184.32 274870.48 -9.61
1806178.26 274875.69 -10.04
1806172.19 274880.91 -9.55
1806166.12 274886.12 -9.45
1806160.06 274891.34 -9.84
1806153.99 274896.55 -9.61
1806147.92 274901.77 -9.61
1806141.86 274906.98 -10.01
1806135.79 274912.20 -9.88
1806129.72 274917.41 -9.88
1806123.66 274922.63 -10.07
1806117.59 274927.84 -9.97
1806111.52 274933.06 -10.27
1806105.45 274938.27 -9.97
1806099.39 274943.48 -9.68
1806093.32 274948.70 -9.94
1806087.25 274953.91 -9.78
1806081.19 274959.13 -9.61
1806075.12 274964.34 -9.71
1806069.05 274969.56 -10.07
1806062.99 274974.77 -9.97
1806056.92 274979.99 -10.20
1806050.85 274985.20 -9.81
1806044.79 274990.42 -9.58
1806038.72 274995.63 -9.84
1806032.65 275000.85 -9.84
1806026.59 275006.06 -9.71
1806020.52 275011.28 -9.84
1806014.45 275016.49 -9.74
1806008.38 275021.70 -9.81
1806002.32 275026.92 -9.81
1805996.25 275032.13 -9.71
1805990.18 275037.35 -9.78
1805984.12 275042.56 -9.88
1805978.05 275047.78 -9.94
1805971.98 275052.99 -10.10
1805965.92 275058.21 -10.01
1805959.85 275063.42 -10.30
1805953.78 275068.64 -10.20
1805947.72 275073.85 -10.20
1805941.65 275079.07 -10.01
1805935.58 275084.28 -10.27
1805929.51 275089.50 -10.53
1805923.45 275094.71 -10.37
1805917.38 275099.92 -10.07
1805911.31 275105.14 -10.04
1805905.25 275110.35 -10.07
1805899.18 275115.57 -10.17
1805893.11 275120.78 -10.14
1805887.05 275126.00 -10.10
1805880.98 275131.21 -9.42
1805874.91 275136.43 -9.68
1805868.85 275141.64 -9.58
1805862.78 275146.86 -9.61
1805856.71 275152.07 -9.61
1805850.65 275157.29 -9.55
1805844.58 275162.50 -9.65
1805838.51 275167.72 -9.74
1805832.44 275172.93 -10.17
1805826.38 275178.14 -9.74
1805820.31 275183.36 -9.74
1805814.24 275188.57 -10.04
1805808.18 275193.79 -10.01
1805802.11 275199.00 -10.20
1805796.04 275204.22 -10.37
1805789.98 275209.43 -10.56
1805783.91 275214.65 -10.63
1805777.84 275219.86 -10.89
1805771.78 275225.08 -10.79
1805765.71 275230.29 -10.99
1805759.64 275235.51 -10.76
1805753.57 275240.72 -11.06
1805747.51 275245.94 -11.12
1805741.44 275251.15 -11.29
1805735.37 275256.36 -11.32
1805729.31 275261.58 -11.42
1805723.24 275266.79 -11.75
1805717.17 275272.01 -11.88
1805711.11 275277.22 -11.78
1805705.04 275282.44 -12.07
1805698.97 275287.65 -12.30
1805692.91 275292.87 -12.73
1805686.84 275298.08 -12.40
1805680.77 275303.30 -12.57
1805674.71 275308.51 -12.20
1805668.64 275313.73 -12.20
1805662.57 275318.94 -12.40
1805656.50 275324.16 -12.80
1805650.44 275329.37 -12.57
1805644.37 275334.58 -12.40
1805638.30 275339.80 -12.60
1805632.24 275345.01 -12.99
1805626.17 275350.23 -12.66
1805620.10 275355.44 -12.57
1805614.04 275360.66 -12.99
1805607.97 275365.87 -12.93
1805601.90 275371.09 -13.02
1805595.84 275376.30 -13.22
1805589.77 275381.52 -13.52
1805583.70 275386.73 -12.93
1805577.64 275391.95 -12.99
1805571.57 275397.16 -12.99
1805565.50 275402.38 -12.99
1805559.43 275407.59 -12.63
1805553.37 275412.80 -12.63
1805547.30 275418.02 -12.73
1805541.23 275423.23 -12.73
1805535.17 275428.45 -12.73
1805529.10 275433.66 -13.02
1805523.03 275438.88 -12.83
1805516.97 275444.09 -13.19
1805510.90 275449.31 -13.02
1805504.83 275454.52 -12.93
1805498.77 275459.74 -13.32
1805492.70 275464.95 -13.42
1805486.63 275470.17 -13.42
1805480.56 275475.38 -13.75
1805474.50 275480.60 -13.75
1805468.43 275485.81 -13.85
1805462.36 275491.02 -13.94
1805456.30 275496.24 -13.71
1805450.23 275501.45 -13.71
1805444.16 275506.67 -13.94
1805438.10 275511.88 -13.94
1805432.03 275517.10 -14.14
1805425.96 275522.31 -14.24
1805419.90 275527.53 -14.04
1805413.83 275532.74 -14.01
1805407.76 275537.96 -14.21
1805401.70 275543.17 -14.01
1805395.63 275548.39 -14.30
1805389.56 275553.60 -14.53
1805383.49 275558.82 -14.53
1805377.43 275564.03 -14.70
1805371.36 275569.24 -14.83
1805365.29 275574.46 -14.63
1805359.23 275579.67 -14.70
1805353.16 275584.89 -14.83
1805347.09 275590.10 -14.86
1805341.03 275595.32 -15.03
1805334.96 275600.53 -14.96
1805328.89 275605.75 -14.86
1805322.83 275610.96 -14.86
1805316.76 275616.18 -15.12
1805310.69 275621.39 -15.22
1805304.62 275626.61 -15.19
1805298.56 275631.82 -15.26
1805292.49 275637.04 -15.52
1805286.42 275642.25 -15.62
1805280.36 275647.46 -15.75
1805274.29 275652.68 -15.85
1805268.22 275657.89 -16.04
1805262.16 275663.11 -16.21
1805256.09 275668.32 -16.54
1805250.02 275673.54 -16.54
1805243.96 275678.75 -16.63
1805237.89 275683.97 -16.57
1805231.82 275689.18 -16.67
1805225.76 275694.40 -16.54
1805219.69 275699.61 -16.40
1805213.62 275704.83 -16.50
1805207.55 275710.04 -16.50
1805201.49 275715.26 -16.63
1805195.42 275720.47 -16.77
1805189.35 275725.68 -16.34
1805183.29 275730.90 -16.34
1805177.22 275736.11 -16.37
1805171.15 275741.33 -16.50
1805165.09 275746.54 -16.93
1805159.02 275751.76 -16.93
1805152.95 275756.97 -16.93
1805146.89 275762.19 -16.47
1805140.82 275767.40 -16.47
1805134.75 275772.62 -16.57
1805128.68 275777.83 -16.57
1805122.62 275783.05 -16.63
1805116.55 275788.26 -16.63
1805110.48 275793.48 -16.70
1805104.42 275798.69 -17.03
1805098.35 275803.90 -17.22
1805092.28 275809.12 -17.32
1805086.22 275814.33 -17.72
1805080.15 275819.55 -17.75
1805074.08 275824.76 -18.31
1805068.02 275829.98 -18.11
1805061.95 275835.19 -18.31
1805055.88 275840.41 -17.98
1805049.82 275845.62 -18.08
1805043.75 275850.84 -17.98
1805037.68 275856.05 -17.85
1805031.61 275861.27 -18.18
1805025.55 275866.48 -17.81
1805019.48 275871.70 -17.95
1805013.41 275876.91 -17.81
1805007.35 275882.12 -17.81
1805001.28 275887.34 -18.08
1804995.21 275892.55 -17.98
1804989.15 275897.77 -18.08
1804983.08 275902.98 -18.24
1804977.01 275908.20 -18.41
1804970.95 275913.41 -18.50
1804964.88 275918.63 -18.50
1804958.81 275923.84 -18.70
1804952.74 275929.06 -18.90
1804946.68 275934.27 -18.80
1804940.61 275939.49 -18.80
1804934.54 275944.70 -18.96
1804928.48 275949.92 -19.06
1804922.41 275955.13 -19.26
1804916.34 275960.34 -19.06
1804910.28 275965.56 -19.06
1804904.21 275970.77 -19.06
1804898.14 275975.99 -19.19
1804892.08 275981.20 -19.09
1804886.01 275986.42 -19.19
1804879.94 275991.63 -19.29
1804873.88 275996.85 -19.29
1804867.81 276002.06 -19.46
1804861.74 276007.28 -19.36
1804855.67 276012.49 -19.26
1804849.61 276017.71 -19.46
1804843.54 276022.92 -19.46
1804837.47 276028.14 -19.55
1804831.41 276033.35 -19.69
1804825.34 276038.57 -20.34
1804819.27 276043.78 -20.44
1804813.21 276048.99 -20.64
1804807.14 276054.21 -20.83
1804801.07 276059.42 -20.67
1804795.01 276064.64 -20.77
1804788.94 276069.85 -20.67
1804782.87 276075.07 -20.83
1804776.80 276080.28 -20.54
1804770.74 276085.50 -20.64
1804764.67 276090.71 -20.47
1804758.60 276095.93 -20.51
1804752.54 276101.14 -20.51
1804746.47 276106.36 -20.67
1804740.40 276111.57 -20.60
1804734.34 276116.79 -20.70
1804728.27 276122.00 -20.77
1804722.20 276127.21 -20.64
1804716.14 276132.43 -20.80
1804710.07 276137.64 -20.90
1804704.00 276142.86 -21.00
1804697.94 276148.07 -20.96
1804691.87 276153.29 -21.16
1804685.80 276158.50 -21.19
1804679.73 276163.72 -21.16
1804673.67 276168.93 -21.19
1804667.60 276174.15 -21.23
1804661.53 276179.36 -21.19
1804655.47 276184.58 -21.10
1804649.40 276189.79 -21.29
1804643.33 276195.01 -21.65
1804637.27 276200.22 -21.65
1804631.20 276205.43 -21.56
1804625.13 276210.65 -21.52
1804619.07 276215.86 -21.62
1804613.00 276221.08 -21.56
1804606.93 276226.29 -21.46
1804600.86 276231.51 -21.26
1804594.80 276236.72 -21.56
1804588.73 276241.94 -21.46
1804582.66 276247.15 -21.46
1804576.60 276252.37 -21.39
1804570.53 276257.58 -21.29
1804564.46 276262.80 -21.46
1804558.40 276268.01 -21.42
1804552.33 276273.23 -21.52
1804546.26 276278.44 -21.56
1804540.20 276283.65 -21.65
1804534.13 276288.87 -21.52
1804528.06 276294.08 -21.65
1804522.00 276299.30 -21.75
1804515.93 276304.51 -21.69
1804509.86 276309.73 -21.65
1804503.79 276314.94 -21.65
1804497.73 276320.16 -21.46
1804491.66 276325.37 -21.59
1804485.59 276330.59 -21.69
1804479.53 276335.80 -21.69
1804473.46 276341.02 -21.85
1804467.39 276346.23 -21.59
1804461.33 276351.45 -21.82
1804455.26 276356.66 -21.75
1804449.19 276361.87 -21.75
1804443.13 276367.09 -21.78
1804437.06 276372.30 -21.85
1804430.99 276377.52 -21.59
1804424.92 276382.73 -21.65
1804418.86 276387.95 -21.65
1804412.79 276393.16 -21.88
1804406.72 276398.38 -21.95
1804400.66 276403.59 -22.05
1804394.59 276408.81 -22.05
1804388.52 276414.02 -22.15
1804382.46 276419.24 -22.31
1804376.39 276424.45 -22.31
1804370.32 276429.67 -22.31
1804364.26 276434.88 -22.47
1804358.19 276440.09 -22.47
1804352.12 276445.31 -22.64
1804346.06 276450.52 -22.44
1804339.99 276455.74 -22.67
1804333.92 276460.95 -22.77
1804327.85 276466.17 -22.64
1804321.79 276471.38 -22.64
1804315.72 276476.60 -22.67
1804309.65 276481.81 -22.67
1804303.59 276487.03 -22.83
1804297.52 276492.24 -22.83
1804291.45 276497.46 -23.06
1804285.39 276502.67 -23.03
1804279.32 276507.89 -23.03
1804273.25 276513.10 -22.97
1804267.19 276518.31 -23.06
1804261.12 276523.53 -23.13
1804255.05 276528.74 -23.16
1804248.98 276533.96 -23.16
1804242.92 276539.17 -23.36
1804236.85 276544.39 -23.36
1804230.78 276549.60 -23.52
1804224.72 276554.82 -23.72
1804218.65 276560.03 -23.62
1804212.58 276565.25 -23.72
1804206.52 276570.46 -23.75
1804200.45 276575.68 -24.05
1803818.24 276904.20 -23.62
1803812.17 276909.41 -23.69
1803806.10 276914.63 -23.82
1803800.03 276919.84 -23.82
1803793.97 276925.06 -23.56
1803787.90 276930.27 -23.52
1803781.83 276935.49 -23.75
1803775.77 276940.70 -23.65
1803769.70 276945.92 -23.36
1803763.63 276951.13 -23.16
1803757.57 276956.35 -23.06
1803751.50 276961.56 -23.00
1803745.43 276966.78 -22.87
1803739.37 276971.99 -22.87
1803733.30 276977.21 -22.51
1803727.23 276982.42 -21.82
1803721.17 276987.63 -21.52
1803715.10 276992.85 -21.03
1803709.03 276998.06 -20.93
1803702.96 277003.28 -21.03
1803696.90 277008.49 -22.08
1803690.83 277013.71 -22.38
1803684.76 277018.92 -22.28
1803678.70 277024.14 -22.18
1803672.63 277029.35 -22.28
1803666.56 277034.57 -22.28
1803660.50 277039.78 -22.18
1803654.43 277045.00 -22.05
1803648.36 277050.21 -22.18
1803642.30 277055.43 -22.15
1803636.23 277060.64 -22.57
1803630.16 277065.85 -22.44
1803624.09 277071.07 -22.51
1803618.03 277076.28 -22.51
1803611.96 277081.50 -22.80
1803605.89 277086.71 -22.70
1803599.83 277091.93 -22.70
1803593.76 277097.14 -22.97
1803587.69 277102.36 -22.80
1803581.63 277107.57 -22.87
1803575.56 277112.79 -22.93
1803569.49 277118.00 -22.83
1803563.43 277123.22 -23.03
1803557.36 277128.43 -22.77
1803551.29 277133.65 -22.87
1803545.23 277138.86 -22.97
1803539.16 277144.08 -22.97
1803533.09 277149.29 -22.87
1803527.02 277154.50 -22.74
1803520.96 277159.72 -22.57
1803514.89 277164.93 -22.34
1803508.82 277170.15 -22.34
1803502.76 277175.36 -22.28
1803496.69 277180.58 -22.38
1806602.09 274521.95 -14.86
1806596.02 274527.16 -15.09
1806589.95 274532.38 -15.09
1806583.89 274537.59 -14.83
1806577.82 274542.81 -15.06
1806571.75 274548.02 -14.34
1806565.69 274553.24 -14.24
1806559.62 274558.45 -14.01
1806553.55 274563.67 -14.01
1806547.49 274568.88 -13.94
1806541.42 274574.10 -13.25
1806535.35 274579.31 -13.12
1806529.29 274584.52 -13.12
1806523.22 274589.74 -12.76
1806517.15 274594.95 -12.57
1806511.08 274600.17 -12.50
1806505.02 274605.38 -12.11
1806498.95 274610.60 -12.01
1806492.88 274615.81 -12.04
1806486.82 274621.03 -11.94
1806480.75 274626.24 -12.11
1806474.68 274631.46 -12.07
1806468.62 274636.67 -11.91
1806462.55 274641.89 -11.29
1806456.48 274647.10 -11.19
1806450.42 274652.32 -11.42
1806444.35 274657.53 -11.22
1806438.28 274662.74 -11.25
1806432.22 274667.96 -11.45
1806426.15 274673.17 -11.19
1806420.08 274678.39 -11.29
1806414.01 274683.60 -11.55
1806407.95 274688.82 -10.56
1806401.88 274694.03 -10.56
1806395.81 274699.25 -10.76
1806389.75 274704.46 -10.66
1806383.68 274709.68 -10.37
1806377.61 274714.89 -10.37
1806371.55 274720.11 -10.30
1806365.48 274725.32 -10.04
1806359.41 274730.54 -10.14
1806353.35 274735.75 -10.20
1806347.28 274740.96 -10.20
1806341.21 274746.18 -9.88
1806335.14 274751.39 -9.81
1806329.08 274756.61 -9.51
1806323.01 274761.82 -9.42
1806316.94 274767.04 -9.58
1806310.88 274772.25 -9.19
1806304.81 274777.47 -9.19
1806298.74 274782.68 -9.65
1806292.68 274787.90 -9.22
1806286.61 274793.11 -9.12
1806280.54 274798.33 -9.22
1806274.48 274803.54 -9.15
1806268.41 274808.76 -9.02
1806262.34 274813.97 -9.09
1806256.28 274819.18 -9.51
1806250.21 274824.40 -9.15
1806244.14 274829.61 -9.19
1806238.07 274834.83 -9.38
1806232.01 274840.04 -9.38
1806225.94 274845.26 -9.15
1806219.87 274850.47 -9.35
1806213.81 274855.69 -9.45
1806207.74 274860.90 -9.68
1806201.67 274866.12 -9.78
1806195.61 274871.33 -9.48
1806189.54 274876.55 -9.58
1806183.47 274881.76 -9.78
1806177.41 274886.98 -9.51
1806171.34 274892.19 -9.38
1806165.27 274897.40 -9.55
1806159.20 274902.62 -9.81
1806153.14 274907.83 -9.38
1806147.07 274913.05 -9.97
1806141.00 274918.26 -10.10
1806134.94 274923.48 -10.01
1806128.87 274928.69 -9.81
1806122.80 274933.91 -9.91
1806116.74 274939.12 -10.20
1806110.67 274944.34 -9.91
1806104.60 274949.55 -9.88
1806098.54 274954.77 -9.97
1806092.47 274959.98 -10.37
1806086.40 274965.20 -9.65
1806080.34 274970.41 -9.88
1806074.27 274975.62 -10.04
1806068.20 274980.84 -10.04
1806062.13 274986.05 -10.37
1806056.07 274991.27 -9.84
1806050.00 274996.48 -10.14
1806043.93 275001.70 -9.94
1806037.87 275006.91 -9.81
1806031.80 275012.13 -9.91
1806025.73 275017.34 -9.81
1806019.67 275022.56 -9.71
1806013.60 275027.77 -10.01
1806007.53 275032.99 -9.81
1806001.47 275038.20 -9.65
1805995.40 275043.42 -9.94
1805989.33 275048.63 -9.88
1805983.26 275053.84 -9.94
1805977.20 275059.06 -10.14
1805971.13 275064.27 -10.01
1805965.06 275069.49 -10.14
1805959.00 275074.70 -10.01
1805952.93 275079.92 -9.61
1805946.86 275085.13 -9.91
1805940.80 275090.35 -10.43
1805934.73 275095.56 -10.20
1805928.66 275100.78 -9.91
1805922.60 275105.99 -10.07
1805916.53 275111.21 -10.07
1805910.46 275116.42 -10.10
1805904.40 275121.64 -10.10
1805898.33 275126.85 -9.88
1805892.26 275132.06 -9.81
1805886.19 275137.28 -9.51
1805880.13 275142.49 -9.61
1805874.06 275147.71 -9.55
1805867.99 275152.92 -9.55
1805861.93 275158.14 -9.65
1805855.86 275163.35 -9.78
1805849.79 275168.57 -9.84
1805843.73 275173.78 -9.91
1805837.66 275179.00 -10.01
1805831.59 275184.21 -9.91
1805825.53 275189.43 -9.91
1805819.46 275194.64 -10.10
1805813.39 275199.86 -10.40
1805807.32 275205.07 -10.40
1805801.26 275210.28 -10.47
1805795.19 275215.50 -10.76
1805789.12 275220.71 -10.63
1805783.06 275225.93 -10.76
1805776.99 275231.14 -11.12
1805770.92 275236.36 -10.83
1805764.86 275241.57 -10.79
1805758.79 275246.79 -11.09
1805752.72 275252.00 -11.81
1805746.66 275257.22 -11.71
1805740.59 275262.43 -11.42
1805734.52 275267.65 -11.71
1805728.46 275272.86 -11.15
1805722.39 275278.08 -11.42
1805716.32 275283.29 -11.84
1805710.25 275288.50 -11.81
1805704.19 275293.72 -11.81
1805698.12 275298.93 -12.07
1805692.05 275304.15 -12.14
1805685.99 275309.36 -12.30
1805679.92 275314.58 -12.11
1805673.85 275319.79 -12.07
1805667.79 275325.01 -12.17
1805661.72 275330.22 -12.34
1805655.65 275335.44 -12.43
1805649.59 275340.65 -12.17
1805643.52 275345.87 -12.17
1805637.45 275351.08 -12.57
1805631.38 275356.30 -12.73
1805625.32 275361.51 -12.53
1805619.25 275366.72 -12.80
1805613.18 275371.94 -12.80
1805607.12 275377.15 -13.02
1805601.05 275382.37 -12.96
1805594.98 275387.58 -13.06
1805588.92 275392.80 -12.73
1805582.85 275398.01 -12.83
1805576.78 275403.23 -12.73
1805570.72 275408.44 -12.63
1805564.65 275413.66 -12.63
1805558.58 275418.87 -12.53
1805552.52 275424.09 -12.53
1805546.45 275429.30 -12.53
1805540.38 275434.52 -12.73
1805534.31 275439.73 -12.73
1805528.25 275444.94 -12.93
1805522.18 275450.16 -13.02
1805516.11 275455.37 -13.35
1805510.05 275460.59 -13.16
1805503.98 275465.80 -13.58
1805497.91 275471.02 -13.52
1805491.85 275476.23 -13.62
1805485.78 275481.45 -13.78
1805479.71 275486.66 -13.78
1805473.65 275491.88 -13.94
1805467.58 275497.09 -14.04
1805461.51 275502.31 -13.88
1805455.44 275507.52 -13.78
1805449.38 275512.74 -13.88
1805443.31 275517.95 -14.01
1805437.24 275523.16 -14.01
1805431.18 275528.38 -14.21
1805425.11 275533.59 -14.01
1805419.04 275538.81 -14.01
1805412.98 275544.02 -14.30
1805406.91 275549.24 -14.11
1805400.84 275554.45 -14.30
1805394.78 275559.67 -14.11
1805388.71 275564.88 -14.21
1805382.64 275570.10 -14.53
1805376.58 275575.31 -14.30
1805370.51 275580.53 -14.30
1805364.44 275585.74 -14.57
1805358.37 275590.96 -14.37
1805352.31 275596.17 -14.63
1805346.24 275601.38 -14.93
1805340.17 275606.60 -14.93
1805334.11 275611.81 -14.93
1805328.04 275617.03 -15.03
1805321.97 275622.24 -14.93
1805315.91 275627.46 -14.83
1805309.84 275632.67 -15.32
1805303.77 275637.89 -15.32
1805297.71 275643.10 -15.42
1805291.64 275648.32 -15.62
1805285.57 275653.53 -15.68
1805279.50 275658.75 -15.68
1805273.44 275663.96 -16.17
1805267.37 275669.18 -16.17
1805261.30 275674.39 -16.37
1805255.24 275679.61 -16.27
1805249.17 275684.82 -16.27
1805243.10 275690.03 -16.21
1805237.04 275695.25 -16.21
1805230.97 275700.46 -16.47
1805224.90 275705.68 -16.17
1805218.84 275710.89 -16.24
1805212.77 275716.11 -16.47
1805206.70 275721.32 -16.40
1805200.64 275726.54 -16.50
1805194.57 275731.75 -16.47
1805188.50 275736.97 -16.47
1805182.43 275742.18 -16.60
1805176.37 275747.40 -16.60
1805170.30 275752.61 -16.73
1805164.23 275757.83 -16.63
1805158.17 275763.04 -16.50
1805152.10 275768.25 -16.50
1805146.03 275773.47 -16.54
1805139.97 275778.68 -16.63
1805133.90 275783.90 -16.83
1805127.83 275789.11 -16.83
1805121.77 275794.33 -17.16
