1799827.47 278462.66 -26.80
1799819.98 278465.46 -27.36
1799812.48 278468.25 -27.46
1799804.99 278471.05 -27.56
1799797.49 278473.84 -27.99
1799790.00 278476.64 -27.95
1799782.50 278479.43 -27.95
1799775.00 278482.23 -27.76
1799767.51 278485.02 -27.59
1799760.01 278487.82 -27.72
1799752.52 278490.61 -27.99
1799745.02 278493.41 -27.79
1799737.53 278496.20 -27.79
1799730.03 278499.00 -28.41
1799722.53 278501.80 -28.35
1799715.04 278504.59 -28.48
1799707.54 278507.39 -28.64
1799700.05 278510.18 -29.00
1799692.55 278512.98 -29.43
1799685.05 278515.77 -29.49
1799677.56 278518.57 -28.97
1799670.06 278521.36 -29.17
1799662.57 278524.16 -29.27
1799655.07 278526.95 -28.94
1799647.58 278529.75 -29.33
1799640.08 278532.54 -29.30
1799632.58 278535.34 -29.76
1799625.09 278538.13 -29.66
1799617.59 278540.93 -29.89
1799610.10 278543.72 -30.18
1799602.60 278546.52 -30.38
1799595.10 278549.31 -30.41
1799587.61 278552.11 -30.58
1799580.11 278554.90 -31.10
1799572.62 278557.70 -31.33
1799565.12 278560.49 -32.05
1799557.63 278563.29 -32.05
1799550.13 278566.08 -32.28
1799542.63 278568.88 -32.38
1799535.14 278571.67 -32.51
1799527.64 278574.47 -32.87
1799520.15 278577.26 -33.20
1799512.65 278580.06 -33.10
1799505.15 278582.85 -33.04
1799497.66 278585.65 -33.50
1799490.16 278588.44 -33.96
1799482.67 278591.24 -34.28
1799475.17 278594.03 -34.32
1799467.68 278596.83 -34.42
1799460.18 278599.62 -35.99
1799452.68 278602.42 -36.19
1799445.19 278605.21 -32.61
1799437.69 278608.01 -33.04
1799430.20 278610.80 -32.71
1799422.70 278613.60 -33.04
1799415.20 278616.40 -33.40
1799400.21 278621.99 -31.40
1799392.72 278624.78 -30.58
1799385.22 278627.58 -29.99
1799377.73 278630.37 -29.49
1799370.23 278633.17 -28.31
1799362.73 278635.96 -27.82
1799355.24 278638.76 -27.62
1799347.74 278641.55 -27.66
1799152.85 278714.22 -17.13
1799145.36 278717.02 -16.37
1799137.86 278719.81 -16.27
1799130.36 278722.61 -16.37
1799122.87 278725.40 -16.50
1799115.37 278728.20 -16.83
1799107.88 278730.99 -16.21
1799100.38 278733.79 -15.39
1799092.88 278736.59 -15.32
1799085.39 278739.38 -15.26
1799077.89 278742.18 -15.45
1799070.40 278744.97 -15.52
1799062.90 278747.77 -15.65
1799055.41 278750.56 -14.86
1799047.91 278753.36 -14.37
1799040.41 278756.15 -14.21
1799032.92 278758.95 -14.01
1799025.42 278761.74 -14.04
1799017.93 278764.54 -14.50
1799010.43 278767.33 -14.44
1799002.93 278770.13 -14.83
1798995.44 278772.92 -15.03
1798987.94 278775.72 -15.58
1798980.45 278778.51 -16.08
1798972.95 278781.31 -14.99
1798965.46 278784.10 -14.70
1798957.96 278786.90 -14.34
1798950.46 278789.69 -14.21
1798942.97 278792.49 -14.34
1798935.47 278795.28 -14.11
1798927.98 278798.08 -13.81
1798920.48 278800.87 -13.81
1798912.98 278803.67 -13.85
1798905.49 278806.46 -13.94
1798897.99 278809.26 -14.27
1798890.50 278812.05 -14.67
1798883.00 278814.85 -13.75
1798875.51 278817.64 -13.85
1798868.01 278820.44 -14.04
1798860.51 278823.23 -14.37
1798853.02 278826.03 -14.30
1798845.52 278828.82 -14.21
1798838.03 278831.62 -13.98
1798830.53 278834.41 -13.58
1798823.04 278837.21 -13.39
1798815.54 278840.00 -13.25
1798808.04 278842.80 -13.16
1798800.55 278845.59 -12.76
1798793.05 278848.39 -12.93
1798785.56 278851.19 -12.53
1798778.06 278853.98 -12.34
1798770.56 278856.78 -12.17
1798763.07 278859.57 -12.96
1798755.57 278862.37 -13.45
1798748.08 278865.16 -13.25
1798740.58 278867.96 -13.25
1798733.09 278870.75 -13.65
1798725.59 278873.55 -13.55
1798718.09 278876.34 -13.81
1798710.60 278879.14 -13.85
1798703.10 278881.93 -13.12
1798695.61 278884.73 -12.14
1798688.11 278887.52 -12.04
1798680.61 278890.32 -12.24
1798673.12 278893.11 -11.75
1798665.62 278895.91 -11.55
1798658.13 278898.70 -11.38
1798650.63 278901.50 -11.32
1798643.14 278904.29 -11.19
1798635.64 278907.09 -11.48
1798628.14 278909.88 -11.32
1798620.65 278912.68 -11.42
1798613.15 278915.47 -11.84
1798605.66 278918.27 -11.55
1798598.16 278921.06 -11.38
1798590.66 278923.86 -11.38
1798583.17 278926.65 -10.99
1798575.67 278929.45 -11.06
1798568.18 278932.24 -11.19
1798560.68 278935.04 -11.25
1798553.19 278937.83 -11.52
1798545.69 278940.63 -11.98
1798538.19 278943.42 -12.34
1798530.70 278946.22 -12.76
1798523.20 278949.01 -13.16
1798515.71 278951.81 -12.57
1798508.21 278954.60 -11.75
1798500.71 278957.40 -11.02
1798493.22 278960.19 -10.96
1798485.72 278962.99 -10.86
1798478.23 278965.78 -10.89
1798470.73 278968.58 -11.09
1798463.24 278971.38 -11.19
1798455.74 278974.17 -11.09
1798448.24 278976.97 -11.29
1798440.75 278979.76 -11.55
1798433.25 278982.56 -11.65
1798425.76 278985.35 -11.75
1798418.26 278988.15 -11.71
1798410.77 278990.94 -12.14
1798403.27 278993.74 -12.57
1798395.77 278996.53 -13.19
1798388.28 278999.33 -13.19
1798380.78 279002.12 -13.12
1798373.29 279004.92 -13.09
1798365.79 279007.71 -13.48
1798358.29 279010.51 -12.76
1798350.80 279013.30 -12.17
1798343.30 279016.10 -12.17
1798335.81 279018.89 -12.17
1798328.31 279021.69 -12.27
1798320.82 279024.48 -12.43
1798313.32 279027.28 -12.60
1798305.82 279030.07 -12.14
1798298.33 279032.87 -12.17
1798290.83 279035.66 -12.37
1798283.34 279038.46 -12.53
1798275.84 279041.25 -12.99
1798268.34 279044.05 -13.12
1798260.85 279046.84 -13.12
1798253.35 279049.64 -13.55
1798245.86 279052.43 -13.71
1798238.36 279055.23 -14.01
1798230.87 279058.02 -13.42
1798223.37 279060.82 -13.09
1798215.87 279063.61 -12.99
1798208.38 279066.41 -12.99
1798200.88 279069.20 -13.09
1798193.39 279072.00 -13.39
1798185.89 279074.79 -13.55
1798178.39 279077.59 -14.04
1798170.90 279080.38 -14.37
1798163.40 279083.18 -14.27
1798155.91 279085.98 -14.37
1798148.41 279088.77 -14.14
1798140.92 279091.57 -14.01
1798133.42 279094.36 -14.14
1798125.92 279097.16 -14.34
1798118.43 279099.95 -14.11
1798110.93 279102.75 -13.29
1798103.44 279105.54 -12.99
1798095.94 279108.34 -12.47
1798088.44 279111.13 -12.37
1798080.95 279113.93 -12.47
1798073.45 279116.72 -12.14
1798065.96 279119.52 -12.27
1798058.46 279122.31 -12.40
1798050.97 279125.11 -12.83
1798043.47 279127.90 -13.19
1798035.97 279130.70 -13.35
1798028.48 279133.49 -13.94
1798020.98 279136.29 -13.09
1798013.49 279139.08 -13.06
1798005.99 279141.88 -13.09
1797998.49 279144.67 -13.09
1797991.00 279147.47 -13.25
1797983.50 279150.26 -13.09
1797976.01 279153.06 -13.22
1797968.51 279155.85 -13.52
1797961.02 279158.65 -13.98
1797953.52 279161.44 -14.34
1797946.02 279164.24 -14.01
1797938.53 279167.03 -14.14
1797931.03 279169.83 -13.68
1797923.54 279172.62 -13.48
1797916.04 279175.42 -13.39
1797908.55 279178.21 -13.52
1797901.05 279181.01 -13.52
1797893.55 279183.80 -13.68
1797886.06 279186.60 -13.39
1797878.56 279189.39 -14.07
1797871.07 279192.19 -14.30
1797863.57 279194.98 -13.98
1797856.07 279197.78 -13.68
1797848.58 279200.57 -13.45
1797841.08 279203.37 -13.16
1797833.59 279206.17 -13.25
1797826.09 279208.96 -13.35
1797818.60 279211.76 -13.39
1797811.10 279214.55 -13.85
1797803.60 279217.35 -14.47
1797796.11 279220.14 -14.83
1797788.61 279222.94 -15.29
1797781.12 279225.73 -15.09
1797773.62 279228.53 -13.35
1797766.12 279231.32 -13.06
1797758.63 279234.12 -13.06
1797751.13 279236.91 -13.32
1797743.64 279239.71 -13.16
1797736.14 279242.50 -13.06
1797728.65 279245.30 -13.16
1797721.15 279248.09 -13.29
1797713.65 279250.89 -13.55
1797706.16 279253.68 -13.62
1797698.66 279256.48 -13.58
1797691.17 279259.27 -13.62
1797683.67 279262.07 -13.91
1797676.17 279264.86 -13.88
1797668.68 279267.66 -14.01
1802543.76 277458.33 -9.65
1802536.26 277461.12 -9.65
1802528.77 277463.92 -9.94
1802521.27 277466.71 -10.40
1802513.77 277469.51 -9.68
1802506.28 277472.30 -9.28
1802498.78 277475.10 -9.09
1802491.29 277477.89 -9.45
1802483.79 277480.69 -9.19
1802476.29 277483.48 -8.89
1802468.80 277486.28 -9.02
1802461.30 277489.07 -8.76
1802453.81 277491.87 -8.37
1802446.31 277494.66 -8.27
1802438.82 277497.46 -8.56
1802431.32 277500.25 -8.56
1802423.82 277503.05 -8.99
1802416.33 277505.84 -9.28
1802408.83 277508.64 -8.66
1802401.34 277511.43 -8.83
1802393.84 277514.23 -8.79
1802386.34 277517.02 -9.35
1802378.85 277519.82 -9.68
1802371.35 277522.61 -9.68
1802363.86 277525.41 -9.51
1802356.36 277528.20 -8.99
1802348.87 277531.00 -9.22
1802341.37 277533.79 -9.28
1802333.87 277536.59 -9.65
1802326.38 277539.38 -9.78
1802318.88 277542.18 -9.38
1802311.39 277544.98 -8.92
1802303.89 277547.77 -8.56
1802296.39 277550.57 -8.66
1802288.90 277553.36 -8.60
1802281.40 277556.16 -8.69
1802273.91 277558.95 -8.66
1802266.41 277561.75 -9.19
1802258.92 277564.54 -9.28
1802251.42 277567.34 -9.19
1802243.92 277570.13 -9.35
1802236.43 277572.93 -9.25
1802228.93 277575.72 -8.96
1802221.44 277578.52 -8.50
1802213.94 277581.31 -8.30
1802206.44 277584.11 -8.30
1802198.95 277586.90 -8.43
1802191.45 277589.70 -8.23
1802183.96 277592.49 -8.07
1802176.46 277595.29 -8.40
1802168.97 277598.08 -8.40
1802161.47 277600.88 -8.73
1802153.97 277603.67 -9.22
1802146.48 277606.47 -9.71
1802138.98 277609.26 -8.33
1802131.49 277612.06 -7.58
1802123.99 277614.85 -7.78
1802116.50 277617.65 -7.68
1802109.00 277620.44 -7.68
1802101.50 277623.24 -7.97
1802094.01 277626.03 -8.40
1802086.51 277628.83 -8.79
1802079.02 277631.62 -9.38
1802071.52 277634.42 -9.35
1802064.02 277637.21 -8.33
1802056.53 277640.01 -8.33
1802049.03 277642.80 -8.43
1802041.54 277645.60 -8.53
1802034.04 277648.39 -8.50
1802026.55 277651.19 -8.56
1802019.05 277653.98 -8.27
1802011.55 277656.78 -7.09
1802004.06 277659.57 -7.48
1801996.56 277662.37 -7.48
1801989.07 277665.17 -7.71
1801981.57 277667.96 -7.71
1801974.07 277670.76 -8.04
1801966.58 277673.55 -8.37
1801959.08 277676.35 -8.37
1801951.59 277679.14 -8.89
1801944.09 277681.94 -9.25
1801936.60 277684.73 -9.65
1801929.10 277687.53 -8.14
1801921.60 277690.32 -8.04
1801914.11 277693.12 -7.84
1801906.61 277695.91 -8.04
1801899.12 277698.71 -7.97
1801891.62 277701.50 -7.97
1801884.12 277704.30 -8.40
1801876.63 277707.09 -8.63
1801869.13 277709.89 -8.14
1801861.64 277712.68 -8.04
1801854.14 277715.48 -8.27
1801846.65 277718.27 -8.20
1801839.15 277721.07 -8.10
1801831.65 277723.86 -8.10
1801824.16 277726.66 -8.33
1801816.66 277729.45 -8.56
1801809.17 277732.25 -8.99
1801801.67 277735.04 -9.42
1801794.17 277737.84 -9.22
1801786.68 277740.63 -7.61
1801779.18 277743.43 -7.48
1801771.69 277746.22 -7.32
1801764.19 277749.02 -7.45
1801756.70 277751.81 -7.58
1801749.20 277754.61 -7.55
1801741.70 277757.40 -7.68
1801734.21 277760.20 -7.87
1801726.71 277762.99 -8.17
1801719.22 277765.79 -8.46
1801711.72 277768.58 -9.02
1801704.22 277771.38 -8.69
1801696.73 277774.17 -8.79
1801689.23 277776.97 -9.09
1801681.74 277779.77 -9.48
1801674.24 277782.56 -9.78
1801666.75 277785.36 -9.88
1801659.25 277788.15 -9.78
1801651.75 277790.95 -9.97
1801644.26 277793.74 -10.30
1801636.76 277796.54 -10.50
1801629.27 277799.33 -10.86
1801621.77 277802.13 -8.76
1801614.28 277804.92 -8.43
1801606.78 277807.72 -8.83
1801599.28 277810.51 -8.63
1801591.79 277813.31 -8.99
1801584.29 277816.10 -9.25
1801576.80 277818.90 -9.65
1801569.30 277821.69 -9.74
1801561.80 277824.49 -10.37
1801554.31 277827.28 -10.89
1801546.81 277830.08 -11.29
1801539.32 277832.87 -12.11
1801531.82 277835.67 -11.42
1801524.33 277838.46 -10.83
1801516.83 277841.26 -10.30
1801509.33 277844.05 -9.88
1801501.84 277846.85 -9.94
1801494.34 277849.64 -9.81
1801486.85 277852.44 -9.71
1801479.35 277855.23 -10.24
1801471.85 277858.03 -10.43
1801464.36 277860.82 -11.06
1801456.86 277863.62 -11.15
1801449.37 277866.41 -11.19
1801441.87 277869.21 -11.58
1801434.38 277872.00 -11.68
1801426.88 277874.80 -11.29
1801419.38 277877.59 -10.99
1801411.89 277880.39 -10.50
1801404.39 277883.18 -10.30
1801396.90 277885.98 -10.01
1801389.40 277888.77 -9.78
1801381.90 277891.57 -10.07
1801374.41 277894.36 -10.40
1801366.91 277897.16 -10.89
1801359.42 277899.96 -11.29
1801351.92 277902.75 -11.88
1801344.43 277905.55 -11.22
1801336.93 277908.34 -10.79
1801329.43 277911.14 -10.60
1801321.94 277913.93 -9.88
1801314.44 277916.73 -9.97
1801306.95 277919.52 -10.50
1801299.45 277922.32 -10.60
1801291.95 277925.11 -10.60
1801284.46 277927.91 -10.89
1801276.96 277930.70 -11.29
1801269.47 277933.50 -11.78
1801261.97 277936.29 -11.94
1801254.48 277939.09 -12.17
1801246.98 277941.88 -12.76
1801239.48 277944.68 -12.80
1801231.99 277947.47 -13.68
1801224.49 277950.27 -13.39
1801217.00 277953.06 -12.60
1801209.50 277955.86 -12.20
1801202.01 277958.65 -11.19
1801194.51 277961.45 -11.19
1801187.01 277964.24 -11.48
1801179.52 277967.04 -11.68
1801172.02 277969.83 -12.50
1801164.53 277972.63 -12.60
1801157.03 277975.42 -12.83
1801149.53 277978.22 -13.22
1801142.04 277981.01 -13.19
1801134.54 277983.81 -12.99
1801127.05 277986.60 -12.60
1801119.55 277989.40 -12.73
1801112.06 277992.19 -12.24
1801104.56 277994.99 -12.43
1801097.06 277997.78 -12.60
1801089.57 278000.58 -12.83
1801082.07 278003.37 -13.12
1801074.58 278006.17 -13.12
1801067.08 278008.96 -13.52
1801059.58 278011.76 -14.21
1801052.09 278014.56 -14.53
1801044.59 278017.35 -14.93
1801037.10 278020.15 -15.03
1801029.60 278022.94 -13.52
1801022.11 278025.74 -12.93
1801014.61 278028.53 -12.83
1801007.11 278031.33 -12.93
1800999.62 278034.12 -12.93
1800992.12 278036.92 -13.71
1800984.63 278039.71 -13.81
1800977.13 278042.51 -13.52
1800969.63 278045.30 -13.81
1800962.14 278048.10 -13.88
1800954.64 278050.89 -13.88
1800947.15 278053.69 -14.21
1800939.65 278056.48 -14.80
1800932.16 278059.28 -13.42
1800924.66 278062.07 -13.19
1800917.16 278064.87 -13.19
1800909.67 278067.66 -12.99
1800902.17 278070.46 -13.09
1800894.68 278073.25 -12.99
1800887.18 278076.05 -12.47
1800879.68 278078.84 -12.17
1800872.19 278081.64 -11.45
1800864.69 278084.43 -11.55
1800857.20 278087.23 -11.75
1800849.70 278090.02 -11.35
1800842.21 278092.82 -11.32
1800834.71 278095.61 -10.99
1800827.21 278098.41 -10.99
1800819.72 278101.20 -11.02
1800812.22 278104.00 -11.02
1800804.73 278106.79 -11.02
1800797.23 278109.59 -11.29
1800789.73 278112.38 -10.99
1800782.24 278115.18 -11.06
1800774.74 278117.97 -11.29
1800767.25 278120.77 -11.42
1800759.75 278123.56 -11.35
1800752.26 278126.36 -11.35
1800744.76 278129.15 -11.55
1800737.26 278131.95 -11.94
1800729.77 278134.75 -12.04
1800722.27 278137.54 -12.37
1800714.78 278140.34 -12.43
1800707.28 278143.13 -12.93
1800699.79 278145.93 -12.83
1800692.29 278148.72 -13.52
1800684.79 278151.52 -13.81
1800677.30 278154.31 -14.50
1800669.80 278157.11 -14.80
1800662.31 278159.90 -15.35
1800654.81 278162.70 -15.94
1800647.31 278165.49 -15.78
1800639.82 278168.29 -13.78
1800632.32 278171.08 -13.29
1800624.83 278173.88 -12.60
1800617.33 278176.67 -12.60
1800609.84 278179.47 -12.40
1800602.34 278182.26 -12.14
1800594.84 278185.06 -12.20
1800587.35 278187.85 -11.91
1800579.85 278190.65 -12.24
1800572.36 278193.44 -12.40
1800564.86 278196.24 -12.76
1800557.36 278199.03 -12.83
1800549.87 278201.83 -13.68
1800542.37 278204.62 -14.11
1800534.88 278207.42 -14.07
1800527.38 278210.21 -14.89
1800519.89 278213.01 -15.35
1800512.39 278215.80 -15.91
1800504.89 278218.60 -16.80
1800497.40 278221.39 -15.19
1800489.90 278224.19 -14.83
1800482.41 278226.98 -14.80
1800474.91 278229.78 -14.76
1800467.41 278232.57 -14.93
1800459.92 278235.37 -14.50
1800452.42 278238.16 -14.96
1800444.93 278240.96 -15.55
1800437.43 278243.75 -15.42
1800429.94 278246.55 -15.29
1800422.44 278249.35 -15.45
1800414.94 278252.14 -16.08
1800407.45 278254.94 -16.47
1800399.95 278257.73 -16.44
1800392.46 278260.53 -16.40
1800384.96 278263.32 -15.78
1800377.46 278266.12 -15.68
1800369.97 278268.91 -15.62
1800362.47 278271.71 -15.19
1800354.98 278274.50 -14.80
1800347.48 278277.30 -14.93
1800339.99 278280.09 -14.89
1800332.49 278282.89 -15.52
1800324.99 278285.68 -15.81
1800317.50 278288.48 -15.52
1800310.00 278291.27 -16.54
1800302.51 278294.07 -16.08
1800295.01 278296.86 -16.31
1800287.52 278299.66 -16.50
1800280.02 278302.45 -16.73
1800272.52 278305.25 -16.77
1800265.03 278308.04 -17.19
1800257.53 278310.84 -17.19
1800250.04 278313.63 -17.29
1800242.54 278316.43 -18.11
1800235.04 278319.22 -18.37
1800227.55 278322.02 -19.32
1800220.05 278324.81 -20.11
1800212.56 278327.61 -19.32
1800205.06 278330.40 -19.16
1800197.57 278333.20 -18.47
1800190.07 278335.99 -18.96
1800182.57 278338.79 -19.36
1800175.08 278341.58 -18.93
1800167.58 278344.38 -18.41
1800160.09 278347.17 -18.18
1800152.59 278349.97 -18.77
1800145.09 278352.76 -19.03
1800137.60 278355.56 -18.77
1800130.10 278358.35 -18.77
1800122.61 278361.15 -19.23
1800115.11 278363.94 -18.67
1800107.62 278366.74 -18.18
1800100.12 278369.54 -18.21
1800092.62 278372.33 -18.24
1800085.13 278375.13 -18.24
1800077.63 278377.92 -18.27
1800070.14 278380.72 -18.44
1800062.64 278383.51 -19.03
1800055.14 278386.31 -19.52
1800047.65 278389.10 -19.59
1800040.15 278391.90 -19.42
1800032.66 278394.69 -19.59
1800025.16 278397.49 -20.28
1800017.67 278400.28 -20.37
1800010.17 278403.08 -20.54
1800002.67 278405.87 -20.54
1799995.18 278408.67 -20.57
1799987.68 278411.46 -21.36
1799980.19 278414.26 -22.01
1799972.69 278417.05 -22.70
1799965.19 278419.85 -23.36
1799957.70 278422.64 -23.92
1799950.20 278425.44 -23.65
1799942.71 278428.23 -23.95
1799935.21 278431.03 -24.15
1799927.72 278433.82 -24.28
1799920.22 278436.62 -24.67
1799912.72 278439.41 -24.80
1799905.23 278442.21 -25.13
1799897.73 278445.00 -25.33
1799890.24 278447.80 -24.93
1799882.74 278450.59 -25.26
1799875.25 278453.39 -26.41
1799867.75 278456.18 -26.44
1799860.25 278458.98 -26.94
1799852.76 278461.77 -26.35
1799845.26 278464.57 -26.77
1799837.77 278467.36 -26.48
1799830.27 278470.16 -26.25
1799822.77 278472.95 -26.74
1799815.28 278475.75 -26.77
1799807.78 278478.54 -27.33
1799800.29 278481.34 -28.12
1799792.79 278484.13 -28.25
1799785.30 278486.93 -28.12
1799777.80 278489.73 -28.31
1799770.30 278492.52 -27.99
1799762.81 278495.32 -27.82
1799755.31 278498.11 -28.02
1799747.82 278500.91 -28.28
1799740.32 278503.70 -28.64
1799732.82 278506.50 -28.54
1799725.33 278509.29 -28.54
1799717.83 278512.09 -29.00
1799710.34 278514.88 -28.64
1799702.84 278517.68 -28.84
1799695.35 278520.47 -29.07
1799687.85 278523.27 -29.10
1799680.35 278526.06 -28.97
1799672.86 278528.86 -29.23
1799665.36 278531.65 -29.13
1799657.87 278534.45 -29.30
1799650.37 278537.24 -29.40
1799642.87 278540.04 -29.20
1799635.38 278542.83 -29.63
1799627.88 278545.63 -29.89
1799620.39 278548.42 -30.84
1799163.14 278718.92 -16.77
1799155.65 278721.72 -16.57
1799148.15 278724.52 -16.54
1799140.65 278727.31 -16.31
1799133.16 278730.11 -16.11
1799125.66 278732.90 -16.34
1799118.17 278735.70 -15.55
1799110.67 278738.49 -15.19
1799103.18 278741.29 -14.96
1799095.68 278744.08 -14.34
1799088.18 278746.88 -14.57
1799080.69 278749.67 -14.96
1799073.19 278752.47 -14.96
1799065.70 278755.26 -15.09
1799058.20 278758.06 -14.40
1799050.70 278760.85 -14.40
1799043.21 278763.65 -14.01
1799035.71 278766.44 -13.98
1799028.22 278769.24 -14.11
1799020.72 278772.03 -14.01
1799013.23 278774.83 -14.34
1799005.73 278777.62 -14.57
1798998.23 278780.42 -14.86
1798990.74 278783.21 -15.35
1798983.24 278786.01 -14.86
1798975.75 278788.80 -14.27
1798968.25 278791.60 -14.37
1798960.76 278794.39 -14.37
1798953.26 278797.19 -13.81
1798945.76 278799.98 -13.35
1798938.27 278802.78 -13.25
1798930.77 278805.57 -13.39
1798923.28 278808.37 -13.32
1798915.78 278811.16 -13.55
1798908.28 278813.96 -13.32
1798900.79 278816.75 -13.81
1798893.29 278819.55 -14.63
1798885.80 278822.34 -13.98
1798878.30 278825.14 -13.88
1798870.81 278827.93 -14.21
1798863.31 278830.73 -13.78
1798855.81 278833.52 -13.62
1798848.32 278836.32 -13.42
1798840.82 278839.12 -13.32
1798833.33 278841.91 -12.83
1798825.83 278844.71 -12.70
1798818.33 278847.50 -12.27
1798810.84 278850.30 -12.11
1798803.34 278853.09 -12.60
1798795.85 278855.89 -12.76
1798788.35 278858.68 -12.53
1798780.86 278861.48 -12.53
1798773.36 278864.27 -12.70
1798765.86 278867.07 -12.89
1798758.37 278869.86 -12.86
1798750.87 278872.66 -12.96
1798743.38 278875.45 -12.99
1798735.88 278878.25 -13.55
1798728.38 278881.04 -13.68
1798720.89 278883.84 -13.48
1798713.39 278886.63 -14.14
1798705.90 278889.43 -13.06
1798698.40 278892.22 -11.22
1798690.91 278895.02 -11.22
1798683.41 278897.81 -11.12
1798675.91 278900.61 -11.32
1798668.42 278903.40 -11.22
1798660.92 278906.20 -11.42
1798653.43 278908.99 -11.25
1798645.93 278911.79 -11.29
1798638.43 278914.58 -10.83
1798630.94 278917.38 -10.73
1798623.44 278920.17 -11.02
1798615.95 278922.97 -11.55
1798608.45 278925.76 -11.32
1798600.96 278928.56 -11.19
1798593.46 278931.35 -11.52
1798585.96 278934.15 -11.48
1798578.47 278936.94 -11.29
1798570.97 278939.74 -11.45
1798563.48 278942.53 -11.45
1798555.98 278945.33 -11.75
1798548.48 278948.12 -12.60
1798540.99 278950.92 -13.02
1798533.49 278953.71 -13.09
1798526.00 278956.51 -12.01
1798518.50 278959.31 -11.52
1798511.01 278962.10 -10.66
1798503.51 278964.90 -10.60
1798496.01 278967.69 -10.60
1798488.52 278970.49 -10.79
1798481.02 278973.28 -10.79
1798473.53 278976.08 -10.89
1798466.03 278978.87 -10.83
1798458.54 278981.67 -10.89
1798451.04 278984.46 -10.83
1798443.54 278987.26 -11.32
1798436.05 278990.05 -11.35
1798428.55 278992.85 -11.52
1798421.06 278995.64 -11.71
1798413.56 278998.44 -11.81
1798406.06 279001.23 -12.24
1798398.57 279004.03 -12.80
1798391.07 279006.82 -12.99
1798383.58 279009.62 -12.80
1798376.08 279012.41 -13.06
1798368.59 279015.21 -13.16
1798361.09 279018.00 -12.30
1798353.59 279020.80 -11.58
1798346.10 279023.59 -11.29
1798338.60 279026.39 -11.88
1798331.11 279029.18 -11.81
1798323.61 279031.98 -11.71
1798316.11 279034.77 -12.01
1798308.62 279037.57 -11.98
1798301.12 279040.36 -11.98
1798293.63 279043.16 -12.30
1798286.13 279045.95 -12.57
1798278.64 279048.75 -12.63
1798271.14 279051.54 -12.57
1798263.64 279054.34 -12.80
1798256.15 279057.13 -13.19
1798248.65 279059.93 -13.58
1798241.16 279062.72 -13.35
1798233.66 279065.52 -13.09
1798226.16 279068.31 -13.02
1798218.67 279071.11 -12.93
1798211.17 279073.91 -13.32
1798203.68 279076.70 -13.42
1798196.18 279079.50 -13.62
1798188.69 279082.29 -13.71
1798181.19 279085.09 -14.01
1798173.69 279087.88 -14.21
1798166.20 279090.68 -14.21
1798158.70 279093.47 -14.53
1798151.21 279096.27 -14.34
1798143.71 279099.06 -14.21
1798136.21 279101.86 -14.63
1798128.72 279104.65 -14.73
1798121.22 279107.45 -13.19
1798113.73 279110.24 -12.47
1798106.23 279113.04 -12.43
1798098.74 279115.83 -12.60
1798091.24 279118.63 -12.40
1798083.74 279121.42 -12.20
1798076.25 279124.22 -12.27
1798068.75 279127.01 -12.40
1798061.26 279129.81 -12.76
1798053.76 279132.60 -12.89
1798046.27 279135.40 -13.48
1798038.77 279138.19 -13.88
1798031.27 279140.99 -13.81
1798023.78 279143.78 -13.29
1798016.28 279146.58 -13.12
1798008.79 279149.37 -13.62
1798001.29 279152.17 -13.35
1797993.79 279154.96 -13.35
1797986.30 279157.76 -13.48
1797978.80 279160.55 -13.71
1797971.31 279163.35 -14.21
1797963.81 279166.14 -14.53
1797956.32 279168.94 -14.27
1797948.82 279171.73 -13.75
1797941.32 279174.53 -14.17
1797933.83 279177.32 -13.65
1797926.33 279180.12 -13.75
1797918.84 279182.91 -13.42
1797911.34 279185.71 -13.45
1797903.84 279188.50 -13.32
1797896.35 279191.30 -13.62
1797888.85 279194.10 -13.62
1797881.36 279196.89 -14.34
1797873.86 279199.69 -13.91
1797866.37 279202.48 -13.81
1797858.87 279205.28 -13.71
1797851.37 279208.07 -13.62
1797843.88 279210.87 -13.62
1797836.38 279213.66 -13.48
1797828.89 279216.46 -13.68
1797821.39 279219.25 -13.98
1797813.89 279222.05 -13.98
1797806.40 279224.84 -14.70
1797798.90 279227.64 -15.29
1797791.41 279230.43 -15.68
1797783.91 279233.23 -13.29
1797776.42 279236.02 -13.06
1797768.92 279238.82 -13.06
1797761.42 279241.61 -12.86
1797753.93 279244.41 -12.86
1797746.43 279247.20 -12.96
1797738.94 279250.00 -12.89
1797731.44 279252.79 -12.99
1797723.94 279255.59 -13.35
1797716.45 279258.38 -13.55
1797708.95 279261.18 -13.91
1797701.46 279263.97 -14.04
1797693.96 279266.77 -13.85
1797686.47 279269.56 -14.04
1797678.97 279272.36 -14.27
1802509.07 277479.80 -9.38
1802501.58 277482.59 -9.38
1802494.08 277485.39 -9.38
1802486.59 277488.18 -9.42
1802479.09 277490.98 -9.25
1802471.59 277493.77 -9.15
1802464.10 277496.57 -8.99
1802456.60 277499.36 -8.23
1802449.11 277502.16 -8.23
1802441.61 277504.95 -8.43
1802434.11 277507.75 -8.73
1802426.62 277510.54 -9.15
1802419.12 277513.34 -9.15
1802411.63 277516.13 -9.35
1802404.13 277518.93 -9.38
1802396.64 277521.72 -9.45
1802389.14 277524.52 -9.51
1802381.64 277527.31 -9.91
1802374.15 277530.11 -9.81
1802366.65 277532.91 -10.17
1802359.16 277535.70 -10.14
1802351.66 277538.50 -9.78
1802344.16 277541.29 -9.81
1802336.67 277544.09 -9.88
1802329.17 277546.88 -9.68
1802321.68 277549.68 -9.88
1802314.18 277552.47 -9.71
1802306.69 277555.27 -9.32
1802299.19 277558.06 -9.32
1802291.69 277560.86 -8.99
1802284.20 277563.65 -9.02
1802276.70 277566.45 -8.89
1802269.21 277569.24 -9.12
1802261.71 277572.04 -9.22
1802254.21 277574.83 -9.51
1802246.72 277577.63 -8.92
1802239.22 277580.42 -8.99
1802231.73 277583.22 -8.66
1802224.23 277586.01 -8.56
1802216.74 277588.81 -8.33
1802209.24 277591.60 -8.30
1802201.74 277594.40 -8.23
1802194.25 277597.19 -8.27
1802186.75 277599.99 -8.10
1802179.26 277602.78 -8.01
1802171.76 277605.58 -8.23
1802164.27 277608.37 -8.33
1802156.77 277611.17 -8.76
1802149.27 277613.96 -8.96
1802141.78 277616.76 -8.46
1802134.28 277619.55 -7.55
1802126.79 277622.35 -7.61
1802119.29 277625.14 -7.64
1802111.79 277627.94 -7.74
1802104.30 277630.73 -7.91
1802096.80 277633.53 -8.04
1802089.31 277636.32 -8.33
1802081.81 277639.12 -8.79
1802074.32 277641.91 -9.15
1802066.82 277644.71 -8.96
1802059.32 277647.50 -8.96
1802051.83 277650.30 -8.46
1802044.33 277653.10 -8.56
1802036.84 277655.89 -8.83
1802029.34 277658.69 -8.66
1802021.84 277661.48 -7.91
1802014.35 277664.28 -7.71
1802006.85 277667.07 -7.61
1801999.36 277669.87 -7.41
1801991.86 277672.66 -7.45
1801984.37 277675.46 -7.74
1801976.87 277678.25 -7.97
1801969.37 277681.05 -8.23
1801961.88 277683.84 -8.60
1801954.38 277686.64 -9.02
1801946.89 277689.43 -9.51
1801939.39 277692.23 -10.07
1801931.89 277695.02 -8.69
1801924.40 277697.82 -8.07
1801916.90 277700.61 -8.10
1801909.41 277703.41 -8.20
1801901.91 277706.20 -8.01
1801894.42 277709.00 -8.10
1801886.92 277711.79 -8.07
1801879.42 277714.59 -8.27
1801871.93 277717.38 -8.40
1801864.43 277720.18 -8.46
1801856.94 277722.97 -8.40
1801849.44 277725.77 -8.30
1801841.94 277728.56 -8.17
1801834.45 277731.36 -8.27
1801826.95 277734.15 -8.40
1801819.46 277736.95 -8.50
1801811.96 277739.74 -8.86
1801804.47 277742.54 -9.25
1801796.97 277745.33 -8.86
1801789.47 277748.13 -7.84
1801781.98 277750.92 -7.58
1801774.48 277753.72 -7.68
1801766.99 277756.51 -7.58
1801759.49 277759.31 -7.78
1801752.00 277762.10 -7.48
1801744.50 277764.90 -7.97
1801737.00 277767.70 -8.10
1801729.51 277770.49 -8.23
1801722.01 277773.29 -8.46
1801714.52 277776.08 -8.60
1801707.02 277778.88 -8.79
1801699.52 277781.67 -8.96
1801692.03 277784.47 -9.06
1801684.53 277787.26 -9.65
1801677.04 277790.06 -9.81
1801669.54 277792.85 -9.97
1801662.05 277795.65 -9.94
1801654.55 277798.44 -10.04
1801647.05 277801.24 -10.50
1801639.56 277804.03 -10.89
1801632.06 277806.83 -11.09
1801624.57 277809.62 -9.28
1801617.07 277812.42 -8.79
1801609.57 277815.21 -8.69
1801602.08 277818.01 -8.83
1801594.58 277820.80 -8.83
1801587.09 277823.60 -9.12
1801579.59 277826.39 -9.42
1801572.10 277829.19 -9.91
1801564.60 277831.98 -10.40
1801557.10 277834.78 -10.86
1801549.61 277837.57 -11.35
1801542.11 277840.37 -11.98
1801534.62 277843.16 -11.38
1801527.12 277845.96 -10.96
1801519.62 277848.75 -10.40
1801512.13 277851.55 -10.24
1801504.63 277854.34 -9.97
1801497.14 277857.14 -10.01
1801489.64 277859.93 -10.10
1801482.15 277862.73 -10.79
1801474.65 277865.52 -10.89
1801467.15 277868.32 -10.89
1801459.66 277871.11 -10.99
1801452.16 277873.91 -10.60
1801444.67 277876.70 -11.09
1801437.17 277879.50 -11.58
1801429.67 277882.29 -11.88
1801422.18 277885.09 -12.17
1801414.68 277887.89 -11.19
1801407.19 277890.68 -10.53
1801399.69 277893.48 -10.20
1801392.20 277896.27 -10.40
1801384.70 277899.07 -10.60
1801377.20 277901.86 -10.60
1801369.71 277904.66 -10.89
1801362.21 277907.45 -11.19
1801354.72 277910.25 -11.65
1801347.22 277913.04 -11.06
1801339.72 277915.84 -10.70
1801332.23 277918.63 -10.30
1801324.73 277921.43 -9.97
1801317.24 277924.22 -10.10
1801309.74 277927.02 -10.40
1801302.25 277929.81 -10.79
1801294.75 277932.61 -11.09
1801287.25 277935.40 -11.19
1801279.76 277938.20 -11.29
1801272.26 277940.99 -11.84
1801264.77 277943.79 -11.91
1801257.27 277946.58 -12.43
1801249.78 277949.38 -12.83
1801242.28 277952.17 -13.42
1801234.78 277954.97 -14.07
1801227.29 277957.76 -14.37
1801219.79 277960.56 -12.66
1801212.30 277963.35 -11.98
1801204.80 277966.15 -11.68
1801197.30 277968.94 -11.58
1801189.81 277971.74 -12.01
1801182.31 277974.53 -11.88
1801174.82 277977.33 -12.30
1801167.32 277980.12 -12.20
1801159.83 277982.92 -12.66
1801152.33 277985.71 -13.25
1801144.83 277988.51 -13.65
1801137.34 277991.30 -13.91
1801129.84 277994.10 -13.42
1801122.35 277996.89 -13.02
1801114.85 277999.69 -12.47
1801107.35 278002.49 -12.53
1801099.86 278005.28 -12.73
1801092.36 278008.08 -12.96
1801084.87 278010.87 -13.25
1801077.37 278013.67 -13.55
1801069.88 278016.46 -13.75
1801062.38 278019.26 -14.17
1801054.88 278022.05 -14.50
1801047.39 278024.85 -14.99
1801039.89 278027.64 -15.26
1801032.40 278030.44 -13.85
1801024.90 278033.23 -13.06
1801017.40 278036.03 -13.25
1801009.91 278038.82 -13.16
1801002.41 278041.62 -13.39
1800994.92 278044.41 -13.85
1800987.42 278047.21 -14.11
1800979.93 278050.00 -13.85
1800972.43 278052.80 -14.14
1800964.93 278055.59 -14.14
1800957.44 278058.39 -14.24
1800949.94 278061.18 -14.47
1800942.45 278063.98 -14.63
1800934.95 278066.77 -12.93
1800927.45 278069.57 -12.50
1800919.96 278072.36 -12.57
1800912.46 278075.16 -12.80
1800904.97 278077.95 -12.53
1800897.47 278080.75 -12.53
1800889.98 278083.54 -11.75
1800882.48 278086.34 -11.75
1800874.98 278089.13 -11.75
1800867.49 278091.93 -11.45
1800859.99 278094.72 -10.96
1800852.50 278097.52 -10.86
1800845.00 278100.31 -11.06
1800837.51 278103.11 -11.35
1800830.01 278105.90 -11.02
1800822.51 278108.70 -10.99
1800815.02 278111.49 -10.89
1800807.52 278114.29 -11.02
1800800.03 278117.08 -11.06
1800792.53 278119.88 -10.86
1800785.03 278122.68 -11.15
1800777.54 278125.47 -11.12
1800770.04 278128.27 -11.32
1800762.55 278131.06 -11.81
1800755.05 278133.86 -11.45
1800747.56 278136.65 -11.78
1800740.06 278139.45 -12.17
1800732.56 278142.24 -12.27
1800725.07 278145.04 -12.66
1800717.57 278147.83 -12.70
1800710.08 278150.63 -13.06
1800702.58 278153.42 -13.39
1800695.08 278156.22 -13.78
1800687.59 278159.01 -14.01
1800680.09 278161.81 -14.60
1800672.60 278164.60 -14.76
1800665.10 278167.40 -15.42
1800657.61 278170.19 -16.01
1800650.11 278172.99 -14.11
1800642.61 278175.78 -13.58
1800635.12 278178.58 -13.06
1800627.62 278181.37 -13.06
1800620.13 278184.17 -12.57
1800612.63 278186.96 -12.20
1800605.13 278189.76 -12.04
1800597.64 278192.55 -11.88
1800590.14 278195.35 -12.17
1800582.65 278198.14 -12.57
1800575.15 278200.94 -12.89
1800567.66 278203.73 -12.83
1800560.16 278206.53 -12.93
1800552.66 278209.32 -13.29
1800545.17 278212.12 -14.04
1800537.67 278214.91 -14.53
1800530.18 278217.71 -15.03
1800522.68 278220.50 -15.98
1800515.18 278223.30 -16.57
1800507.69 278226.09 -16.96
1800500.19 278228.89 -15.45
1800492.70 278231.68 -14.93
1800485.20 278234.48 -15.39
1800477.71 278237.27 -15.65
1800470.21 278240.07 -14.99
1800462.71 278242.87 -14.93
1800455.22 278245.66 -15.49
1800447.72 278248.46 -15.68
1800440.23 278251.25 -15.78
1800432.73 278254.05 -15.72
1800425.23 278256.84 -16.11
1800417.74 278259.64 -16.31
1800410.24 278262.43 -16.47
1800402.75 278265.23 -16.80
1800395.25 278268.02 -15.91
1800387.76 278270.82 -15.62
1800380.26 278273.61 -15.91
1800372.76 278276.41 -15.12
1800365.27 278279.20 -15.32
1800357.77 278282.00 -15.81
1800350.28 278284.79 -15.72
1800342.78 278287.59 -15.49
1800335.29 278290.38 -15.35
1800327.79 278293.18 -15.45
1800320.29 278295.97 -15.75
1800312.80 278298.77 -15.94
1800305.30 278301.56 -16.47
1800297.81 278304.36 -16.77
1800290.31 278307.15 -16.60
1800282.81 278309.95 -16.77
1800275.32 278312.74 -16.80
1800267.82 278315.54 -16.93
1800260.33 278318.33 -17.52
1800252.83 278321.13 -18.11
1800245.34 278323.92 -18.37
1800237.84 278326.72 -18.83
1800230.34 278329.51 -19.46
1800222.85 278332.31 -20.05
1800215.35 278335.10 -18.50
1800207.86 278337.90 -18.57
1800200.36 278340.69 -18.86
1800192.86 278343.49 -19.00
1800185.37 278346.28 -19.00
1800177.87 278349.08 -18.57
1800170.38 278351.87 -18.60
1800162.88 278354.67 -18.24
1800155.39 278357.47 -18.24
1800147.89 278360.26 -18.77
1800140.39 278363.06 -18.60
1800132.90 278365.85 -18.77
1800125.40 278368.65 -19.00
1800117.91 278371.44 -18.50
1800110.41 278374.24 -18.57
1800102.91 278377.03 -18.41
1800095.42 278379.83 -18.11
1800087.92 278382.62 -18.41
1800080.43 278385.42 -18.77
1800072.93 278388.21 -18.64
1800065.44 278391.01 -18.64
1800057.94 278393.80 -19.26
1800050.44 278396.60 -20.08
1800042.95 278399.39 -19.42
1800035.45 278402.19 -19.52
1800027.96 278404.98 -19.72
1800020.46 278407.78 -20.08
1800012.96 278410.57 -20.21
1800005.47 278413.37 -20.47
1799997.97 278416.16 -21.06
1799990.48 278418.96 -21.56
1799982.98 278421.75 -22.05
1799975.49 278424.55 -22.34
1799967.99 278427.34 -22.38
1799960.49 278430.14 -23.72
1799953.00 278432.93 -24.05
1799945.50 278435.73 -23.85
1799938.01 278438.52 -23.65
1799930.51 278441.32 -24.05
1799923.02 278444.11 -24.48
1799915.52 278446.91 -24.67
1799908.02 278449.70 -25.39
1799900.53 278452.50 -25.39
1799893.03 278455.29 -25.36
1799885.54 278458.09 -25.56
1799878.04 278460.88 -26.15
1799870.54 278463.68 -26.74
1799863.05 278466.47 -26.64
1799855.55 278469.27 -26.74
1799848.06 278472.06 -26.64
1799840.56 278474.86 -26.71
1799833.07 278477.66 -26.51
1799825.57 278480.45 -27.03
1799818.07 278483.25 -26.90
1799810.58 278486.04 -27.85
1799803.08 278488.84 -27.95
1799795.59 278491.63 -27.79
1799788.09 278494.43 -28.05
1799780.59 278497.22 -27.69
1799773.10 278500.02 -27.69
1799765.60 278502.81 -27.66
1799758.11 278505.61 -28.18
1799750.61 278508.40 -28.38
1799743.12 278511.20 -28.18
1799735.62 278513.99 -28.48
1799728.12 278516.79 -28.64
1799720.63 278519.58 -28.64
1799713.13 278522.38 -28.61
1799705.64 278525.17 -28.90
1799698.14 278527.97 -28.87
1799690.64 278530.76 -29.43
1799683.15 278533.56 -29.49
1799675.65 278536.35 -29.33
1799668.16 278539.15 -29.33
1799660.66 278541.94 -29.40
1799653.17 278544.74 -29.33
1799645.67 278547.53 -29.72
1799638.17 278550.33 -30.05
1799630.68 278553.12 -30.38
1799173.43 278723.63 -15.88
1799165.94 278726.42 -16.24
1799158.44 278729.22 -16.21
1799150.95 278732.01 -16.31
1799143.45 278734.81 -15.65
1799135.95 278737.60 -15.75
1799128.46 278740.40 -15.98
1799120.96 278743.19 -15.16
1799113.47 278745.99 -14.73
1799105.97 278748.78 -14.60
1799098.47 278751.58 -14.27
1799090.98 278754.37 -14.27
1799083.48 278757.17 -14.44
1799075.99 278759.96 -14.63
1799068.49 278762.76 -14.27
1799061.00 278765.55 -14.34
1799053.50 278768.35 -14.37
1799046.00 278771.14 -13.85
1799038.51 278773.94 -13.48
1799031.01 278776.73 -13.58
1799023.52 278779.53 -13.88
1799016.02 278782.32 -14.21
1799008.53 278785.12 -14.34
1799001.03 278787.91 -14.76
1798993.53 278790.71 -14.67
1798986.04 278793.50 -14.17
1798978.54 278796.30 -14.01
1798971.05 278799.09 -13.81
1798963.55 278801.89 -14.04
1798956.05 278804.68 -13.91
1798948.56 278807.48 -13.22
1798941.06 278810.27 -13.22
1798933.57 278813.07 -13.22
1798926.07 278815.86 -13.19
1798918.58 278818.66 -13.12
1798911.08 278821.45 -13.48
1798903.58 278824.25 -13.81
1798896.09 278827.05 -14.37
1798888.59 278829.84 -14.34
1798881.10 278832.64 -13.65
1798873.60 278835.43 -13.55
1798866.10 278838.23 -13.32
1798858.61 278841.02 -12.86
1798851.11 278843.82 -12.89
1798843.62 278846.61 -12.89
1798836.12 278849.41 -12.37
1798828.63 278852.20 -12.37
1798821.13 278855.00 -12.34
1798813.63 278857.79 -12.17
1798806.14 278860.59 -12.30
1798798.64 278863.38 -12.83
1798791.15 278866.18 -12.89
1798783.65 278868.97 -12.63
1798776.15 278871.77 -13.02
1798768.66 278874.56 -13.02
1798761.16 278877.36 -13.02
1798753.67 278880.15 -12.93
1798746.17 278882.95 -13.02
1798738.68 278885.74 -13.02
1798731.18 278888.54 -13.58
1798723.68 278891.33 -13.78
1798716.19 278894.13 -11.25
1798708.69 278896.92 -11.06
1798701.20 278899.72 -10.47
1798693.70 278902.51 -10.56
1798686.20 278905.31 -10.56
1798678.71 278908.10 -10.86
1798671.21 278910.90 -10.37
1798663.72 278913.69 -10.63
1798656.22 278916.49 -10.83
1798648.73 278919.28 -10.83
1798641.23 278922.08 -10.83
1798633.73 278924.87 -10.73
1798626.24 278927.67 -10.93
1798618.74 278930.46 -10.73
1798611.25 278933.26 -10.83
1798603.75 278936.05 -10.93
1798596.25 278938.85 -10.83
1798588.76 278941.64 -11.19
1798581.26 278944.44 -10.99
1798573.77 278947.24 -11.19
1798566.27 278950.03 -11.78
1798558.78 278952.83 -11.94
1798551.28 278955.62 -12.27
1798543.78 278958.42 -12.37
1798536.29 278961.21 -11.55
1798528.79 278964.01 -11.12
1798521.30 278966.80 -10.63
1798513.80 278969.60 -10.53
1798506.31 278972.39 -10.63
1798498.81 278975.19 -10.24
1798491.31 278977.98 -10.83
1798483.82 278980.78 -10.83
1798476.32 278983.57 -11.12
1798468.83 278986.37 -11.22
1798461.33 278989.16 -11.02
1798453.83 278991.96 -11.22
1798446.34 278994.75 -11.29
1798438.84 278997.55 -11.48
1798431.35 279000.34 -11.81
1798423.85 279003.14 -11.71
1798416.36 279005.93 -12.11
1798408.86 279008.73 -12.63
1798401.36 279011.52 -12.73
1798393.87 279014.32 -12.93
1798386.37 279017.11 -12.80
1798378.88 279019.91 -12.70
1798371.38 279022.70 -12.66
1798363.88 279025.50 -11.75
1798356.39 279028.29 -11.35
1798348.89 279031.09 -11.42
1798341.40 279033.88 -11.61
1798333.90 279036.68 -11.71
1798326.41 279039.47 -11.81
1798318.91 279042.27 -12.11
1798311.41 279045.06 -12.66
1798303.92 279047.86 -12.96
1798296.42 279050.65 -12.96
1798288.93 279053.45 -12.70
1798281.43 279056.24 -12.80
1798273.93 279059.04 -13.09
1798266.44 279061.84 -13.19
1798258.94 279064.63 -13.65
1798251.45 279067.43 -13.58
1798243.95 279070.22 -12.96
1798236.46 279073.02 -12.96
1798228.96 279075.81 -12.96
1798221.46 279078.61 -13.16
1798213.97 279081.40 -13.45
1798206.47 279084.20 -13.45
1798198.98 279086.99 -13.85
1798191.48 279089.79 -13.94
1798183.98 279092.58 -14.07
1798176.49 279095.38 -14.07
1798168.99 279098.17 -14.17
1798161.50 279100.97 -14.50
1798154.00 279103.76 -14.60
1798146.51 279106.56 -14.83
1798139.01 279109.35 -15.16
1798131.51 279112.15 -13.09
1798124.02 279114.94 -12.17
1798116.52 279117.74 -12.11
1798109.03 279120.53 -12.07
1798101.53 279123.33 -12.37
1798094.04 279126.12 -12.50
1798086.54 279128.92 -12.60
1798079.04 279131.71 -12.47
1798071.55 279134.51 -12.66
1798064.05 279137.30 -12.89
1798056.56 279140.10 -13.85
1798049.06 279142.89 -14.07
1798041.56 279145.69 -14.50
1798034.07 279148.48 -14.01
1798026.57 279151.28 -13.42
1798019.08 279154.07 -13.45
1798011.58 279156.87 -13.78
1798004.09 279159.66 -13.88
1797996.59 279162.46 -13.91
1797989.09 279165.25 -14.01
1797981.60 279168.05 -14.01
1797974.10 279170.84 -14.44
1797966.61 279173.64 -14.83
1797959.11 279176.43 -13.98
1797951.61 279179.23 -13.68
1797944.12 279182.03 -13.62
1797936.62 279184.82 -13.52
1797929.13 279187.62 -13.58
1797921.63 279190.41 -13.25
1797914.14 279193.21 -13.55
1797906.64 279196.00 -13.58
1797899.14 279198.80 -13.85
1797891.65 279201.59 -13.98
1797884.15 279204.39 -14.37
1797876.66 279207.18 -13.94
1797869.16 279209.98 -14.01
1797861.66 279212.77 -13.81
1797854.17 279215.57 -13.62
1797846.67 279218.36 -13.85
1797839.18 279221.16 -14.11
1797831.68 279223.95 -14.44
1797824.19 279226.75 -14.50
1797816.69 279229.54 -14.83
1797809.19 279232.34 -15.12
1797801.70 279235.13 -15.52
1797794.20 279237.93 -14.01
1797786.71 279240.72 -13.62
1797779.21 279243.52 -13.12
1797771.71 279246.31 -13.12
1797764.22 279249.11 -13.12
1797756.72 279251.90 -12.99
1797749.23 279254.70 -13.09
1797741.73 279257.49 -13.09
1797734.24 279260.29 -13.19
1797726.74 279263.08 -13.29
1797719.24 279265.88 -13.78
1797711.75 279268.67 -14.07
1797704.25 279271.47 -14.30
1797696.76 279274.26 -14.30
1797689.26 279277.06 -14.30
1797681.76 279279.85 -14.60
1802511.87 277487.29 -9.55
1802504.37 277490.09 -9.32
1802496.88 277492.88 -9.45
1802489.38 277495.68 -9.58
1802481.88 277498.47 -9.58
1802474.39 277501.27 -9.02
1802466.89 277504.06 -9.09
1802459.40 277506.86 -9.28
1802451.90 277509.65 -8.89
1802444.41 277512.45 -8.76
1802436.91 277515.24 -8.99
1802429.41 277518.04 -9.55
1802421.92 277520.84 -9.71
1802414.42 277523.63 -9.61
1802406.93 277526.43 -9.61
1802399.43 277529.22 -9.71
1802391.93 277532.02 -9.61
1802384.44 277534.81 -9.51
1802376.94 277537.61 -9.71
1802369.45 277540.40 -10.01
1802361.95 277543.20 -10.30
1802354.46 277545.99 -9.68
1802346.96 277548.79 -9.32
1802339.46 277551.58 -9.12
1802331.97 277554.38 -9.42
1802324.47 277557.17 -9.81
1802316.98 277559.97 -9.65
1802309.48 277562.76 -9.38
1802301.98 277565.56 -9.09
1802294.49 277568.35 -9.38
1802286.99 277571.15 -9.09
1802279.50 277573.94 -9.09
1802272.00 277576.74 -9.19
1802264.51 277579.53 -9.48
1802257.01 277582.33 -9.74
1802249.51 277585.12 -8.73
1802242.02 277587.92 -8.73
1802234.52 277590.71 -8.86
1802227.03 277593.51 -8.73
1802219.53 277596.30 -8.86
1802212.04 277599.10 -8.66
1802204.54 277601.89 -8.37
1802197.04 277604.69 -8.23
1802189.55 277607.48 -8.20
1802182.05 277610.28 -8.46
1802174.56 277613.07 -8.46
1802167.06 277615.87 -8.69
1802159.56 277618.66 -8.99
1802152.07 277621.46 -9.06
1802144.57 277624.25 -9.38
1802137.08 277627.05 -8.73
1802129.58 277629.84 -8.37
1802122.09 277632.64 -7.74
1802114.59 277635.43 -7.97
1802107.09 277638.23 -7.97
1802099.60 277641.03 -7.84
1802092.10 277643.82 -8.07
1802084.61 277646.62 -8.43
1802077.11 277649.41 -8.83
1802069.61 277652.21 -9.51
1802062.12 277655.00 -9.51
1802054.62 277657.80 -8.99
1802047.13 277660.59 -8.83
1802039.63 277663.39 -8.96
1802032.14 277666.18 -8.66
1802024.64 277668.98 -8.43
1802017.14 277671.77 -7.94
1802009.65 277674.57 -7.91
1802002.15 277677.36 -7.68
1801994.66 277680.16 -7.81
1801987.16 277682.95 -7.78
1801979.66 277685.75 -8.20
1801972.17 277688.54 -8.30
1801964.67 277691.34 -8.79
1801957.18 277694.13 -9.19
1801949.68 277696.93 -9.48
1801942.19 277699.72 -10.01
1801934.69 277702.52 -10.30
1801919.70 277708.11 -8.37
1801912.20 277710.90 -7.97
1801904.71 277713.70 -7.97
1801897.21 277716.49 -8.43
1801889.71 277719.29 -8.20
1801882.22 277722.08 -8.33
1801874.72 277724.88 -8.56
1801867.23 277727.67 -8.69
1801859.73 277730.47 -8.46
1801852.24 277733.26 -8.56
1801844.74 277736.06 -8.17
1801837.24 277738.85 -8.23
1801829.75 277741.65 -8.07
1801822.25 277744.44 -8.43
1801814.76 277747.24 -9.09
1801807.26 277750.03 -8.99
1801799.77 277752.83 -9.35
1801792.27 277755.63 -9.45
1801784.77 277758.42 -8.30
1801777.28 277761.22 -8.01
1801769.78 277764.01 -7.91
1801762.29 277766.81 -7.87
1801754.79 277769.60 -8.01
1801747.29 277772.40 -8.23
1801739.80 277775.19 -8.23
1801732.30 277777.99 -8.40
1801724.81 277780.78 -8.69
1801717.31 277783.58 -9.02
1801709.82 277786.37 -8.96
1801702.32 277789.17 -8.92
1801694.82 277791.96 -9.45
1801687.33 277794.76 -9.51
1801679.83 277797.55 -9.94
1801672.34 277800.35 -10.01
1801664.84 277803.14 -10.01
1801657.34 277805.94 -10.40
1801649.85 277808.73 -10.56
1801642.35 277811.53 -10.86
1801634.86 277814.32 -11.22
1801627.36 277817.12 -10.14
1801619.87 277819.91 -8.92
1801612.37 277822.71 -9.02
1801604.87 277825.50 -8.92
1801597.38 277828.30 -8.86
1801589.88 277831.09 -9.06
1801582.39 277833.89 -9.65
1801574.89 277836.68 -9.94
1801567.39 277839.48 -10.24
1801559.90 277842.27 -10.60
1801552.40 277845.07 -11.19
1801544.91 277847.86 -11.78
1801537.41 277850.66 -12.14
1801529.92 277853.45 -11.25
1801522.42 277856.25 -10.70
1801514.92 277859.04 -10.17
1801507.43 277861.84 -10.30
1801499.93 277864.63 -10.70
1801492.44 277867.43 -10.79
1801484.94 277870.22 -10.99
1801477.44 277873.02 -10.50
1801469.95 277875.82 -10.30
1801462.45 277878.61 -10.30
1801454.96 277881.41 -10.50
1801447.46 277884.20 -10.60
1801439.97 277887.00 -11.19
1801432.47 277889.79 -11.78
1801424.97 277892.59 -12.30
1801417.48 277895.38 -11.88
1801409.98 277898.18 -10.86
1801402.49 277900.97 -10.76
1801394.99 277903.77 -10.70
1801387.49 277906.56 -10.70
1801380.00 277909.36 -10.79
1801372.50 277912.15 -10.99
1801365.01 277914.95 -11.78
1801357.51 277917.74 -11.55
1801350.02 277920.54 -11.15
1801342.52 277923.33 -10.56
1801335.02 277926.13 -10.47
1801327.53 277928.92 -10.40
1801320.03 277931.72 -10.50
1801312.54 277934.51 -10.40
1801305.04 277937.31 -10.37
1801297.55 277940.10 -10.96
1801290.05 277942.90 -11.06
1801282.55 277945.69 -11.15
1801275.06 277948.49 -11.52
1801267.56 277951.28 -11.81
1801260.07 277954.08 -12.34
1801252.57 277956.87 -12.89
1801245.07 277959.67 -13.29
1801237.58 277962.46 -13.65
1801230.08 277965.26 -14.17
1801222.59 277968.05 -12.37
1801215.09 277970.85 -11.94
1801207.60 277973.64 -11.81
1801200.10 277976.44 -11.81
1801192.60 277979.23 -11.71
1801185.11 277982.03 -11.94
1801177.61 277984.82 -12.14
1801170.12 277987.62 -12.24
1801162.62 277990.42 -12.80
1801155.12 277993.21 -13.19
1801147.63 277996.01 -13.88
1801140.13 277998.80 -14.47
1801132.64 278001.60 -13.25
1801125.14 278004.39 -13.09
1801117.65 278007.19 -12.80
1801110.15 278009.98 -12.76
1801102.65 278012.78 -12.57
1801095.16 278015.57 -12.80
1801087.66 278018.37 -12.99
1801080.17 278021.16 -13.22
1801072.67 278023.96 -13.48
1801065.17 278026.75 -13.88
1801057.68 278029.55 -14.34
1801050.18 278032.34 -14.83
1801042.69 278035.14 -15.29
1801035.19 278037.93 -13.94
1801027.70 278040.73 -13.58
1801020.20 278043.52 -13.19
1801012.70 278046.32 -13.25
1801005.21 278049.11 -13.29
1800997.71 278051.91 -13.32
1800990.22 278054.70 -13.62
1800982.72 278057.50 -14.17
1800975.22 278060.29 -14.57
1800967.73 278063.09 -14.17
1800960.23 278065.88 -14.04
1800952.74 278068.68 -14.34
1800945.24 278071.47 -13.25
1800937.75 278074.27 -12.86
1800930.25 278077.06 -12.34
1800922.75 278079.86 -12.57
1800915.26 278082.65 -12.43
1800907.76 278085.45 -12.34
1800900.27 278088.24 -12.57
1800892.77 278091.04 -12.01
1800885.28 278093.83 -11.55
1800877.78 278096.63 -11.65
1800870.28 278099.42 -11.35
1800862.79 278102.22 -11.15
1800855.29 278105.01 -10.83
1800847.80 278107.81 -10.89
1800840.30 278110.61 -11.32
1800832.80 278113.40 -10.89
1800825.31 278116.20 -11.09
1800817.81 278118.99 -11.38
1800810.32 278121.79 -11.22
1800802.82 278124.58 -11.25
1800795.33 278127.38 -10.83
1800787.83 278130.17 -11.42
1800780.33 278132.97 -11.32
1800772.84 278135.76 -11.48
1800765.34 278138.56 -11.48
1800757.85 278141.35 -11.81
1800750.35 278144.15 -11.78
1800742.85 278146.94 -12.11
1800735.36 278149.74 -12.40
1800727.86 278152.53 -12.63
1800720.37 278155.33 -12.80
1800712.87 278158.12 -13.09
1800705.38 278160.92 -13.39
1800697.88 278163.71 -13.88
1800690.38 278166.51 -14.14
1800682.89 278169.30 -14.67
1800675.39 278172.10 -14.99
1800667.90 278174.89 -15.29
1800660.40 278177.69 -16.44
1800652.90 278180.48 -14.57
1800645.41 278183.28 -13.94
1800637.91 278186.07 -13.81
1800630.42 278188.87 -12.93
1800622.92 278191.66 -12.63
1800615.43 278194.46 -12.47
1800607.93 278197.25 -12.43
1800600.43 278200.05 -12.24
1800592.94 278202.84 -12.57
1800585.44 278205.64 -12.60
1800577.95 278208.43 -13.02
1800570.45 278211.23 -13.02
1800562.95 278214.02 -13.22
1800555.46 278216.82 -14.01
1800547.96 278219.61 -14.11
1800540.47 278222.41 -14.44
1800532.97 278225.20 -15.16
1800525.48 278228.00 -15.58
1800517.98 278230.80 -16.08
1800510.48 278233.59 -16.50
1800502.99 278236.39 -15.49
1800495.49 278239.18 -14.40
1800488.00 278241.98 -14.63
1800480.50 278244.77 -14.73
1800473.00 278247.57 -15.45
1800465.51 278250.36 -15.26
1800458.01 278253.16 -15.22
1800450.52 278255.95 -15.72
1800443.02 278258.75 -15.65
1800435.53 278261.54 -15.65
1800428.03 278264.34 -16.24
1800420.53 278267.13 -16.54
1800413.04 278269.93 -16.50
1800405.54 278272.72 -16.60
1800398.05 278275.52 -15.81
1800390.55 278278.31 -15.32
1800383.06 278281.11 -15.42
1800375.56 278283.90 -15.12
1800368.06 278286.70 -15.22
1800360.57 278289.49 -15.32
1800353.07 278292.29 -15.78
1800345.58 278295.08 -15.65
