1806346.88 273429.82 -15.03
1806340.57 273434.74 -14.93
1806334.26 273439.66 -15.03
1806327.96 273444.59 -15.16
1806321.65 273449.51 -14.76
1806315.34 273454.43 -14.89
1806309.04 273459.35 -14.96
1806302.73 273464.27 -15.12
1806296.42 273469.20 -15.12
1806290.12 273474.12 -15.22
1806283.81 273479.04 -15.81
1806277.50 273483.96 -15.45
1806271.20 273488.88 -15.29
1806264.89 273493.81 -15.29
1806258.58 273498.73 -15.19
1806252.28 273503.65 -15.32
1806245.97 273508.57 -15.22
1806239.66 273513.49 -15.29
1806233.36 273518.42 -15.32
1806227.05 273523.34 -15.16
1806220.74 273528.26 -15.06
1806214.44 273533.18 -15.35
1806208.13 273538.10 -15.62
1806201.82 273543.03 -15.75
1806195.52 273547.95 -15.72
1806189.21 273552.87 -15.72
1806182.90 273557.79 -16.04
1806176.60 273562.71 -16.24
1806170.29 273567.64 -16.24
1809725.86 270802.86 -22.15
1809719.56 270807.78 -22.15
1809713.25 270812.71 -22.51
1809706.94 270817.63 -22.47
1809700.64 270822.55 -22.47
1809694.33 270827.47 -22.28
1809688.02 270832.39 -22.38
1809681.72 270837.32 -22.64
1809675.41 270842.24 -22.57
1809669.10 270847.16 -22.77
1809662.80 270852.08 -22.51
1809656.49 270857.00 -22.34
1809650.18 270861.93 -21.82
1809643.88 270866.85 -21.39
1809637.57 270871.77 -21.36
1809631.26 270876.69 -21.23
1809624.96 270881.61 -21.23
1809618.65 270886.53 -21.42
1809612.34 270891.46 -21.10
1809606.04 270896.38 -21.19
1809599.73 270901.30 -21.00
1809593.42 270906.22 -21.29
1809587.12 270911.14 -21.46
1809580.81 270916.07 -21.26
1809574.50 270920.99 -21.13
1809568.20 270925.91 -21.33
1809561.89 270930.83 -21.00
1809555.58 270935.75 -20.93
1809549.28 270940.68 -20.60
1809542.97 270945.60 -20.67
1809536.66 270950.52 -20.44
1809530.36 270955.44 -20.41
1809524.05 270960.36 -20.11
1809517.74 270965.29 -19.72
1809511.44 270970.21 -19.85
1809505.13 270975.13 -19.72
1809498.82 270980.05 -19.52
1809492.52 270984.97 -19.69
1809486.21 270989.90 -19.65
1809479.90 270994.82 -19.55
1809473.60 270999.74 -19.65
1809467.29 271004.66 -19.75
1809460.98 271009.58 -19.03
1809454.68 271014.51 -19.19
1809448.37 271019.43 -19.03
1809442.06 271024.35 -18.70
1809435.76 271029.27 -18.80
1809429.45 271034.19 -19.13
1809423.14 271039.12 -18.90
1809416.84 271044.04 -18.96
1809410.53 271048.96 -19.06
1809404.22 271053.88 -18.70
1809397.92 271058.80 -18.70
1809391.61 271063.73 -18.93
1809385.30 271068.65 -18.64
1809379.00 271073.57 -18.54
1809372.69 271078.49 -18.24
1809366.38 271083.41 -18.54
1809360.08 271088.34 -18.54
1809353.77 271093.26 -18.41
1809347.46 271098.18 -18.31
1809341.16 271103.10 -18.41
1809334.85 271108.02 -18.18
1809328.54 271112.95 -18.11
1809322.24 271117.87 -17.75
1809315.93 271122.79 -17.85
1809309.62 271127.71 -18.11
1809303.32 271132.63 -17.78
1809297.01 271137.56 -17.68
1809290.70 271142.48 -17.81
1809284.40 271147.40 -16.90
1809278.09 271152.32 -16.83
1809271.78 271157.24 -17.16
1809265.48 271162.17 -17.45
1809259.17 271167.09 -16.63
1809252.86 271172.01 -16.83
1809246.56 271176.93 -17.22
1809240.25 271181.85 -16.70
1809233.94 271186.78 -16.60
1809227.64 271191.70 -16.50
1809221.33 271196.62 -16.90
1809215.02 271201.54 -16.90
1809208.72 271206.46 -16.50
1809202.41 271211.39 -16.31
1809196.10 271216.31 -16.21
1809189.80 271221.23 -16.54
1809183.49 271226.15 -16.34
1809177.18 271231.07 -16.24
1809170.88 271236.00 -16.14
1809164.57 271240.92 -16.24
1809158.26 271245.84 -16.47
1809151.96 271250.76 -16.47
1809145.65 271255.68 -16.77
1809139.34 271260.61 -16.17
1809133.04 271265.53 -15.88
1809126.73 271270.45 -15.65
1809120.42 271275.37 -15.68
1809114.12 271280.29 -15.58
1809107.81 271285.22 -15.68
1809101.50 271290.14 -15.68
1809095.20 271295.06 -15.62
1809088.89 271299.98 -15.52
1809082.58 271304.90 -15.22
1809076.28 271309.83 -15.35
1809069.97 271314.75 -15.19
1809063.66 271319.67 -15.22
1809057.36 271324.59 -15.12
1809051.05 271329.51 -15.68
1809044.74 271334.44 -15.29
1809038.44 271339.36 -15.68
1809032.13 271344.28 -15.26
1809025.82 271349.20 -15.45
1808981.68 271383.66 -15.35
1808975.37 271388.58 -15.26
1808969.06 271393.50 -15.55
1808962.76 271398.42 -15.22
1808956.45 271403.34 -15.32
1808950.14 271408.27 -15.45
1808943.84 271413.19 -15.55
1808937.53 271418.11 -14.83
1808931.22 271423.03 -14.83
1808924.92 271427.95 -14.96
1808918.61 271432.88 -14.70
1808912.30 271437.80 -14.57
1808906.00 271442.72 -15.06
1808899.69 271447.64 -14.60
1808893.38 271452.56 -14.60
1808887.08 271457.49 -14.53
1808880.77 271462.41 -14.63
1808874.46 271467.33 -14.34
1808868.16 271472.25 -14.24
1808861.85 271477.17 -14.50
1808855.54 271482.10 -14.21
1808849.24 271487.02 -14.30
1808842.93 271491.94 -14.21
1808836.62 271496.86 -14.21
1808830.32 271501.78 -13.98
1808824.01 271506.71 -14.01
1808817.70 271511.63 -14.21
1808811.40 271516.55 -14.21
1808805.09 271521.47 -14.21
1808798.78 271526.39 -14.27
1808792.48 271531.32 -13.85
1808786.17 271536.24 -13.85
1808779.86 271541.16 -14.04
1808773.56 271546.08 -13.94
1808767.25 271551.00 -13.81
1808760.94 271555.93 -13.52
1808754.64 271560.85 -13.68
1808748.33 271565.77 -13.85
1808742.02 271570.69 -13.91
1808735.72 271575.61 -14.50
1808729.41 271580.54 -13.91
1808704.18 271600.22 -14.73
1808697.88 271605.15 -14.67
1808691.57 271610.07 -14.53
1808685.26 271614.99 -14.44
1808678.96 271619.91 -14.11
1808672.65 271624.83 -14.63
1808666.34 271629.76 -14.40
1808660.04 271634.68 -13.78
1808653.73 271639.60 -13.88
1808647.42 271644.52 -14.40
1808641.12 271649.44 -13.85
1808634.81 271654.37 -13.85
1808628.50 271659.29 -14.04
1808622.20 271664.21 -14.04
1808615.89 271669.13 -14.14
1808609.58 271674.05 -14.04
1808603.28 271678.98 -13.32
1808596.97 271683.90 -13.68
1808590.66 271688.82 -13.58
1808584.36 271693.74 -13.58
1808578.05 271698.66 -13.71
1808571.74 271703.59 -13.81
1808565.44 271708.51 -13.62
1808559.13 271713.43 -13.62
1808552.82 271718.35 -13.62
1808546.52 271723.27 -13.71
1808540.21 271728.20 -13.58
1808533.90 271733.12 -13.39
1808527.60 271738.04 -13.39
1808521.29 271742.96 -13.68
1808514.98 271747.88 -13.29
1808508.68 271752.81 -13.09
1808502.37 271757.73 -13.39
1808496.06 271762.65 -13.06
1808489.76 271767.57 -13.19
1808483.45 271772.49 -13.29
1808477.14 271777.42 -13.29
1808470.84 271782.34 -13.39
1808464.53 271787.26 -13.48
1808458.22 271792.18 -13.48
1808451.92 271797.10 -13.58
1808445.61 271802.03 -13.71
1808439.30 271806.95 -13.94
1808433.00 271811.87 -13.62
1808426.69 271816.79 -13.62
1808420.38 271821.71 -13.94
1808414.08 271826.64 -13.16
1808407.77 271831.56 -13.16
1808401.46 271836.48 -13.45
1808395.16 271841.40 -13.19
1808388.85 271846.32 -13.19
1808382.54 271851.25 -13.29
1808376.24 271856.17 -13.42
1808369.93 271861.09 -13.25
1808363.62 271866.01 -13.25
1808357.32 271870.93 -13.42
1808351.01 271875.86 -13.48
1808344.70 271880.78 -13.32
1808338.40 271885.70 -13.29
1808332.09 271890.62 -13.32
1808325.78 271895.54 -13.32
1808319.48 271900.46 -13.42
1808313.17 271905.39 -13.48
1808306.86 271910.31 -13.39
1808300.56 271915.23 -13.29
1808294.25 271920.15 -13.48
1808287.94 271925.07 -13.81
1808281.64 271930.00 -13.88
1808275.33 271934.92 -13.58
1808269.02 271939.84 -13.68
1808262.72 271944.76 -13.58
1808256.41 271949.68 -13.39
1808250.10 271954.61 -13.88
1808243.80 271959.53 -14.21
1808237.49 271964.45 -13.75
1808231.18 271969.37 -13.75
1808224.88 271974.29 -13.94
1808218.57 271979.22 -13.58
1808212.26 271984.14 -13.39
1808205.96 271989.06 -13.48
1808199.65 271993.98 -13.68
1808193.34 271998.90 -13.48
1808187.04 272003.83 -13.78
1808180.73 272008.75 -13.68
1808174.42 272013.67 -13.78
1808168.12 272018.59 -13.88
1808161.81 272023.51 -13.48
1808155.50 272028.44 -13.58
1808149.20 272033.36 -13.78
1808142.89 272038.28 -14.01
1808136.58 272043.20 -14.01
1808130.28 272048.12 -14.01
1808123.97 272053.05 -13.91
1808117.66 272057.97 -13.91
1808111.36 272062.89 -14.01
1808105.05 272067.81 -14.01
1808098.74 272072.73 -13.81
1808092.44 272077.66 -14.01
1808086.13 272082.58 -14.11
1808079.82 272087.50 -14.11
1808073.52 272092.42 -14.01
1808067.21 272097.34 -14.01
1808060.90 272102.27 -14.34
1808054.60 272107.19 -14.34
1808048.29 272112.11 -14.50
1808041.98 272117.03 -14.50
1808035.68 272121.95 -14.50
1808029.37 272126.88 -14.30
1808023.06 272131.80 -14.34
1808016.76 272136.72 -14.44
1808010.45 272141.64 -14.30
1808004.14 272146.56 -14.67
1807997.84 272151.49 -14.47
1807991.53 272156.41 -14.47
1807985.22 272161.33 -14.53
1807978.92 272166.25 -14.57
1807972.61 272171.17 -14.57
1807966.30 272176.10 -14.53
1807960.00 272181.02 -14.57
1807953.69 272185.94 -14.57
1807947.38 272190.86 -14.96
1807941.08 272195.78 -14.67
1807934.77 272200.71 -14.76
1807928.46 272205.63 -15.26
1807922.16 272210.55 -15.26
1807915.85 272215.47 -15.09
1807909.54 272220.39 -15.19
1807878.01 272245.00 -15.91
1807871.70 272249.93 -15.75
1807865.40 272254.85 -15.75
1807859.09 272259.77 -16.01
1807852.78 272264.69 -16.01
1807846.48 272269.61 -15.91
1807840.17 272274.54 -16.17
1807833.86 272279.46 -15.88
1807827.56 272284.38 -16.27
1807821.25 272289.30 -15.88
1807814.94 272294.22 -16.11
1807808.64 272299.15 -16.40
1807802.33 272304.07 -16.24
1807796.02 272308.99 -16.24
1807789.72 272313.91 -16.24
1807783.41 272318.83 -16.44
1807777.10 272323.76 -16.44
1807770.80 272328.68 -16.93
1807764.49 272333.60 -16.44
1807758.18 272338.52 -16.67
1807751.88 272343.44 -16.63
1807745.57 272348.37 -16.70
1807739.26 272353.29 -16.77
1807732.96 272358.21 -16.86
1807726.65 272363.13 -17.09
1807720.34 272368.05 -16.83
1807714.04 272372.98 -16.73
1807707.73 272377.90 -17.22
1807701.42 272382.82 -17.03
1807695.12 272387.74 -17.03
1807688.81 272392.66 -17.22
1807682.50 272397.59 -17.19
1807676.20 272402.51 -17.39
1807669.89 272407.43 -17.22
1807663.58 272412.35 -17.22
1807657.28 272417.27 -17.62
1807650.97 272422.20 -17.29
1807644.66 272427.12 -17.29
1807638.36 272432.04 -17.55
1807632.05 272436.96 -17.36
1807625.74 272441.88 -17.55
1807619.44 272446.81 -17.55
1807613.13 272451.73 -17.75
1807606.82 272456.65 -17.59
1807600.52 272461.57 -17.59
1807594.21 272466.49 -17.59
1807587.90 272471.42 -17.78
1807524.84 272520.64 -17.88
1807518.53 272525.56 -17.42
1807512.22 272530.48 -17.81
1807505.92 272535.40 -17.29
1807499.61 272540.32 -17.42
1807493.30 272545.25 -17.29
1807487.00 272550.17 -16.83
1807480.69 272555.09 -16.96
1807474.38 272560.01 -17.06
1807468.08 272564.93 -17.06
1807461.77 272569.86 -17.03
1807455.46 272574.78 -17.03
1807449.16 272579.70 -16.93
1807442.85 272584.62 -17.13
1807436.54 272589.54 -17.06
1807430.24 272594.47 -16.80
1807423.93 272599.39 -16.90
1807417.62 272604.31 -17.09
1807411.32 272609.23 -16.50
1807405.01 272614.15 -16.40
1807398.70 272619.08 -16.40
1807392.40 272624.00 -16.50
1807386.09 272628.92 -16.40
1807379.78 272633.84 -16.40
1807373.48 272638.76 -16.50
1807367.17 272643.69 -16.40
1807360.86 272648.61 -16.60
1807354.56 272653.53 -16.21
1807348.25 272658.45 -16.31
1807341.94 272663.37 -16.11
1807335.64 272668.30 -15.88
1807329.33 272673.22 -16.21
1807323.02 272678.14 -16.21
1807316.72 272683.06 -15.98
1807310.41 272687.98 -16.08
1807304.10 272692.91 -16.31
1807297.80 272697.83 -15.94
1807291.49 272702.75 -15.94
1807285.18 272707.67 -15.91
1807278.88 272712.59 -15.72
1807272.57 272717.52 -16.01
1807266.26 272722.44 -15.91
1807259.96 272727.36 -15.91
1807253.65 272732.28 -16.08
1807247.34 272737.20 -15.78
1807241.04 272742.13 -15.68
1807234.73 272747.05 -14.60
1807228.42 272751.97 -14.80
1807222.12 272756.89 -14.89
1807215.81 272761.81 -14.50
1807209.50 272766.74 -14.50
1807203.20 272771.66 -14.34
1807196.89 272776.58 -14.34
1807190.58 272781.50 -14.04
1807184.28 272786.42 -14.04
1807177.97 272791.35 -14.04
1807171.66 272796.27 -13.88
1807165.36 272801.19 -13.88
1807159.05 272806.11 -13.98
1807152.74 272811.03 -13.68
1807146.44 272815.96 -13.78
1807140.13 272820.88 -13.85
1807133.82 272825.80 -13.65
1807127.52 272830.72 -13.71
1807121.21 272835.64 -13.35
1807114.90 272840.57 -13.55
1807108.60 272845.49 -13.16
1807102.29 272850.41 -13.25
1807095.98 272855.33 -13.29
1807089.68 272860.25 -13.19
1807083.37 272865.18 -13.39
1807077.06 272870.10 -13.22
1807070.76 272875.02 -13.12
1807064.45 272879.94 -13.06
1807058.14 272884.86 -13.16
1807051.84 272889.79 -13.16
1807045.53 272894.71 -13.32
1807039.22 272899.63 -13.06
1807032.92 272904.55 -12.86
1807026.61 272909.47 -13.09
1807020.30 272914.39 -13.06
1807014.00 272919.32 -12.76
1807007.69 272924.24 -12.76
1807001.38 272929.16 -12.60
1806995.08 272934.08 -12.80
1806988.77 272939.00 -12.53
1806982.46 272943.93 -12.40
1806976.16 272948.85 -12.34
1806969.85 272953.77 -12.53
1806963.54 272958.69 -12.50
1806957.24 272963.61 -12.53
1806950.93 272968.54 -12.24
1806944.62 272973.46 -12.07
1806938.32 272978.38 -12.07
1806932.01 272983.30 -12.01
1806925.70 272988.22 -11.91
1806919.40 272993.15 -12.01
1806913.09 272998.07 -12.20
1806906.78 273002.99 -11.91
1806900.48 273007.91 -12.11
1806894.17 273012.83 -12.01
1806887.86 273017.76 -12.40
1806881.56 273022.68 -12.50
1806875.25 273027.60 -12.37
1806868.94 273032.52 -12.37
1806862.64 273037.44 -12.66
1806856.33 273042.37 -12.43
1806850.02 273047.29 -12.47
1806843.72 273052.21 -12.43
1806837.41 273057.13 -12.40
1806831.10 273062.05 -12.40
1806824.80 273066.98 -12.43
1806818.49 273071.90 -12.70
1806812.18 273076.82 -12.50
1806805.88 273081.74 -12.63
1806799.57 273086.66 -12.43
1806793.26 273091.59 -12.47
1806786.96 273096.51 -12.37
1806780.65 273101.43 -12.60
1806774.34 273106.35 -12.50
1806768.04 273111.27 -12.53
1806761.73 273116.20 -12.53
1806755.42 273121.12 -12.60
1806749.12 273126.04 -12.89
1806742.81 273130.96 -12.99
1806736.50 273135.88 -12.99
1806730.20 273140.81 -13.06
1806723.89 273145.73 -12.86
1806717.58 273150.65 -13.39
1806711.28 273155.57 -13.16
1806704.97 273160.49 -13.32
1806698.66 273165.42 -13.55
1806692.36 273170.34 -13.81
1806686.05 273175.26 -13.75
1806679.74 273180.18 -13.39
1806673.44 273185.10 -13.42
1806667.13 273190.03 -13.71
1806660.82 273194.95 -13.62
1806654.52 273199.87 -13.62
1806648.21 273204.79 -13.62
1806641.90 273209.71 -13.65
1806635.60 273214.64 -13.65
1806629.29 273219.56 -13.65
1806622.98 273224.48 -13.91
1806616.68 273229.40 -13.68
1806610.37 273234.32 -13.68
1806604.06 273239.25 -13.52
1806597.76 273244.17 -13.71
1806591.45 273249.09 -13.62
1806585.14 273254.01 -13.58
1806578.84 273258.93 -13.32
1806572.53 273263.86 -13.32
1806566.22 273268.78 -13.58
1806559.92 273273.70 -13.32
1806553.61 273278.62 -13.75
1806547.30 273283.54 -14.07
1806541.00 273288.47 -14.37
1806534.69 273293.39 -14.44
1806528.38 273298.31 -14.40
1806522.08 273303.23 -14.30
1806515.77 273308.15 -14.44
1806509.46 273313.08 -14.44
1806503.16 273318.00 -14.73
1806496.85 273322.92 -14.53
1806490.54 273327.84 -14.63
1806484.24 273332.76 -14.70
1806477.93 273337.69 -14.83
1806471.62 273342.61 -14.93
1806465.32 273347.53 -14.67
1806459.01 273352.45 -14.80
1806452.71 273357.37 -14.83
1806446.40 273362.30 -14.83
1806440.09 273367.22 -14.80
1806433.79 273372.14 -14.99
1806427.48 273377.06 -15.16
1806421.17 273381.98 -15.22
1806414.87 273386.91 -15.88
1806408.56 273391.83 -15.85
1806402.25 273396.75 -16.34
1806395.95 273401.67 -16.31
1806389.64 273406.59 -15.26
1806383.33 273411.52 -15.19
1806377.03 273416.44 -15.03
1806370.72 273421.36 -15.03
1806364.41 273426.28 -15.12
1806358.11 273431.20 -15.06
1806351.80 273436.13 -15.26
1806345.49 273441.05 -15.29
1806339.19 273445.97 -14.93
1806332.88 273450.89 -14.93
1806326.57 273455.81 -14.73
1806320.27 273460.74 -14.93
1806313.96 273465.66 -14.96
1806307.65 273470.58 -14.99
1806301.35 273475.50 -14.86
1806295.04 273480.42 -14.76
1806288.73 273485.35 -15.22
1806282.43 273490.27 -15.32
1806276.12 273495.19 -15.42
1806269.81 273500.11 -15.52
1806263.51 273505.03 -15.81
1806257.20 273509.96 -15.35
1806250.89 273514.88 -15.39
1806244.59 273519.80 -15.55
1806238.28 273524.72 -15.52
1806231.97 273529.64 -15.39
1806225.67 273534.57 -15.39
1806219.36 273539.49 -15.52
1806213.05 273544.41 -15.81
1806206.75 273549.33 -15.85
1806200.44 273554.25 -16.21
1806194.13 273559.18 -15.98
1806187.83 273564.10 -16.37
1806181.52 273569.02 -16.27
1806175.21 273573.94 -15.98
1806168.91 273578.86 -16.01
1806162.60 273583.79 -16.40
1806156.29 273588.71 -16.90
1809730.79 270809.17 -22.18
1809724.48 270814.09 -22.08
1809718.17 270819.01 -22.57
1809711.87 270823.93 -22.54
1809705.56 270828.86 -22.44
1809699.25 270833.78 -22.44
1809692.95 270838.70 -22.64
1809686.64 270843.62 -22.44
1809680.33 270848.54 -22.57
1809674.03 270853.47 -21.75
1809667.72 270858.39 -21.72
1809661.41 270863.31 -21.85
1809655.11 270868.23 -21.78
1809648.80 270873.15 -21.26
1809642.49 270878.08 -21.13
1809636.19 270883.00 -21.29
1809629.88 270887.92 -21.06
1809623.57 270892.84 -20.67
1809617.27 270897.76 -21.06
1809610.96 270902.69 -21.39
1809604.65 270907.61 -21.29
1809598.35 270912.53 -21.26
1809592.04 270917.45 -21.26
1809585.73 270922.37 -21.13
1809579.43 270927.30 -21.19
1809573.12 270932.22 -20.90
1809566.81 270937.14 -20.57
1809560.51 270942.06 -20.57
1809554.20 270946.98 -20.44
1809547.89 270951.91 -20.01
1809541.59 270956.83 -20.18
1809535.28 270961.75 -19.95
1809528.97 270966.67 -19.69
1809522.67 270971.59 -19.78
1809516.36 270976.52 -19.59
1809510.05 270981.44 -19.59
1809503.75 270986.36 -19.39
1809497.44 270991.28 -19.55
1809491.13 270996.20 -19.29
1809484.83 271001.13 -19.03
1809478.52 271006.05 -19.32
1809472.21 271010.97 -19.13
1809465.91 271015.89 -19.13
1809459.60 271020.81 -19.29
1809453.29 271025.74 -19.39
1809446.99 271030.66 -18.96
1809440.68 271035.58 -18.90
1809434.37 271040.50 -18.96
1809428.07 271045.42 -18.67
1809421.76 271050.35 -18.67
1809415.45 271055.27 -18.93
1809409.15 271060.19 -18.57
1809402.84 271065.11 -18.44
1809396.53 271070.03 -18.77
1809390.23 271074.96 -18.54
1809383.92 271079.88 -18.18
1809377.61 271084.80 -18.08
1809371.31 271089.72 -18.08
1809365.00 271094.64 -18.14
1809358.69 271099.57 -17.91
1809352.39 271104.49 -18.11
1809346.08 271109.41 -17.85
1809339.77 271114.33 -18.04
1809333.47 271119.25 -18.04
1809327.16 271124.18 -17.68
1809320.85 271129.10 -17.59
1809314.55 271134.02 -17.16
1809308.24 271138.94 -17.19
1809301.93 271143.86 -17.29
1809295.63 271148.79 -17.19
1809289.32 271153.71 -16.70
1809283.01 271158.63 -16.80
1809276.71 271163.55 -17.13
1809270.40 271168.47 -16.90
1809264.09 271173.40 -16.50
1809257.79 271178.32 -16.60
1809251.48 271183.24 -16.67
1809245.17 271188.16 -16.67
1809238.87 271193.08 -16.27
1809232.56 271198.01 -16.27
1809226.25 271202.93 -16.67
1809219.95 271207.85 -16.50
1809213.64 271212.77 -16.40
1809207.33 271217.69 -16.60
1809201.03 271222.61 -16.44
1809194.72 271227.54 -16.57
1809188.41 271232.46 -15.98
1809182.11 271237.38 -16.27
1809175.80 271242.30 -15.88
1809169.49 271247.22 -15.78
1809163.19 271252.15 -16.21
1809156.88 271257.07 -16.08
1809150.57 271261.99 -15.81
1809144.27 271266.91 -15.72
1809137.96 271271.83 -15.58
1809131.65 271276.76 -15.72
1809125.35 271281.68 -15.42
1809119.04 271286.60 -15.55
1809112.73 271291.52 -15.62
1809106.43 271296.44 -15.49
1809100.12 271301.37 -15.32
1809093.81 271306.29 -15.32
1809087.51 271311.21 -15.55
1809081.20 271316.13 -15.81
1809074.89 271321.05 -15.09
1809068.59 271325.98 -15.03
1809062.28 271330.90 -15.58
1809024.44 271360.43 -15.72
1809018.13 271365.35 -15.62
1809011.83 271370.27 -15.45
1809005.52 271375.20 -15.65
1808999.21 271380.12 -15.42
1808992.91 271385.04 -15.52
1808986.60 271389.96 -15.22
1808980.29 271394.88 -15.03
1808973.99 271399.81 -14.86
1808967.68 271404.73 -15.16
1808961.37 271409.65 -14.76
1808955.07 271414.57 -14.99
1808948.76 271419.49 -14.93
1808942.45 271424.42 -14.83
1808936.15 271429.34 -14.57
1808929.84 271434.26 -14.40
1808923.53 271439.18 -14.50
1808917.23 271444.10 -14.17
1808910.92 271449.03 -14.30
1808904.61 271453.95 -14.60
1808898.31 271458.87 -14.21
1808892.00 271463.79 -14.11
1808885.69 271468.71 -14.30
1808879.39 271473.64 -14.21
1808873.08 271478.56 -13.98
1808866.77 271483.48 -13.98
1808860.47 271488.40 -13.68
1808854.16 271493.32 -13.91
1808847.85 271498.25 -14.01
1808841.55 271503.17 -14.11
1808835.24 271508.09 -13.98
1808828.93 271513.01 -13.88
1808822.63 271517.93 -13.78
1808816.32 271522.86 -13.88
1808810.01 271527.78 -13.71
1808803.71 271532.70 -13.42
1808797.40 271537.62 -13.65
1808791.09 271542.54 -13.42
1808784.79 271547.47 -13.62
1808778.48 271552.39 -13.91
1808772.17 271557.31 -13.91
1808765.87 271562.23 -13.58
1808759.56 271567.15 -13.58
1808734.33 271586.84 -14.53
1808728.03 271591.76 -14.57
1808721.72 271596.69 -14.21
1808715.41 271601.61 -14.07
1808709.11 271606.53 -14.27
1808702.80 271611.45 -14.53
1808696.49 271616.37 -14.21
1808690.19 271621.30 -13.58
1808683.88 271626.22 -13.78
1808677.57 271631.14 -13.78
1808671.27 271636.06 -13.55
1808664.96 271640.98 -13.55
1808658.65 271645.91 -13.75
1808652.35 271650.83 -14.14
1808646.04 271655.75 -13.62
1808639.73 271660.67 -13.42
1808633.43 271665.59 -13.32
1808627.12 271670.52 -13.75
1808620.81 271675.44 -13.55
1808614.51 271680.36 -13.62
1808608.20 271685.28 -13.32
1808601.89 271690.20 -13.39
1808595.59 271695.13 -13.58
1808589.28 271700.05 -13.09
1808582.97 271704.97 -13.19
1808576.67 271709.89 -13.68
1808570.36 271714.81 -13.39
1808564.05 271719.74 -13.39
1808557.75 271724.66 -13.16
1808551.44 271729.58 -13.06
1808545.13 271734.50 -13.19
1808538.83 271739.42 -13.25
1808532.52 271744.35 -13.06
1808526.21 271749.27 -13.35
1808519.91 271754.19 -13.19
1808513.60 271759.11 -13.09
1808507.29 271764.03 -13.48
1808500.99 271768.96 -13.35
1808494.68 271773.88 -13.29
1808488.37 271778.80 -13.19
1808482.07 271783.72 -12.89
1808475.76 271788.64 -12.99
1808469.45 271793.57 -13.42
1808463.15 271798.49 -13.48
1808456.84 271803.41 -13.29
1808450.53 271808.33 -13.29
1808444.23 271813.25 -13.52
1808437.92 271818.18 -13.35
1808431.61 271823.10 -13.22
1808425.31 271828.02 -13.35
1808419.00 271832.94 -13.29
1808412.69 271837.86 -12.99
1808406.39 271842.79 -13.16
1808400.08 271847.71 -13.09
1808393.77 271852.63 -13.02
1808387.47 271857.55 -13.12
1808381.16 271862.47 -13.09
1808374.85 271867.40 -13.12
1808368.55 271872.32 -13.22
1808362.24 271877.24 -13.39
1808355.93 271882.16 -13.19
1808349.63 271887.08 -13.32
1808343.32 271892.01 -13.42
1808337.01 271896.93 -13.42
1808330.71 271901.85 -13.35
1808324.40 271906.77 -13.68
1808318.09 271911.69 -13.29
1808311.79 271916.62 -13.52
1808305.48 271921.54 -13.12
1808299.17 271926.46 -13.42
1808292.87 271931.38 -13.58
1808286.56 271936.30 -13.29
1808280.25 271941.23 -13.29
1808273.95 271946.15 -13.48
1808267.64 271951.07 -13.39
1808261.33 271955.99 -13.19
1808255.03 271960.91 -13.58
1808248.72 271965.84 -13.88
1808242.41 271970.76 -13.39
1808236.11 271975.68 -13.29
1808229.80 271980.60 -13.29
1808223.49 271985.52 -13.48
1808217.19 271990.45 -13.29
1808210.88 271995.37 -13.29
1808204.57 272000.29 -13.48
1808198.27 272005.21 -13.39
1808191.96 272010.13 -13.48
1808185.65 272015.06 -13.09
1808179.35 272019.98 -13.29
1808173.04 272024.90 -13.39
1808166.73 272029.82 -13.29
1808160.43 272034.74 -13.39
1808154.12 272039.67 -13.58
1808147.81 272044.59 -13.68
1808141.51 272049.51 -13.58
1808135.20 272054.43 -13.81
1808128.89 272059.35 -13.68
1808122.59 272064.28 -13.91
1808116.28 272069.20 -14.34
1808109.97 272074.12 -14.04
1808103.67 272079.04 -14.04
1808097.36 272083.96 -14.14
1808091.05 272088.89 -13.91
1808084.75 272093.81 -13.91
1808078.44 272098.73 -13.91
1808072.13 272103.65 -14.04
1808065.83 272108.57 -14.07
1808059.52 272113.50 -14.14
1808053.21 272118.42 -14.21
1808046.91 272123.34 -13.88
1808040.60 272128.26 -14.07
1808034.29 272133.18 -14.14
1808027.99 272138.11 -14.14
1808021.68 272143.03 -14.17
1808015.37 272147.95 -14.24
1808009.07 272152.87 -14.37
1808002.76 272157.79 -14.37
1807996.45 272162.72 -14.47
1807990.15 272167.64 -14.44
1807983.84 272172.56 -14.57
1807977.53 272177.48 -14.57
1807971.23 272182.40 -14.67
1807964.92 272187.33 -15.06
1807958.61 272192.25 -15.03
1807952.31 272197.17 -15.32
1807946.00 272202.09 -15.52
1807939.69 272207.01 -15.39
1807933.39 272211.94 -15.39
1807927.08 272216.86 -15.58
1807920.77 272221.78 -15.52
1807914.47 272226.70 -15.52
1807908.16 272231.62 -15.81
1807901.85 272236.54 -15.32
1807895.55 272241.47 -15.58
1807889.24 272246.39 -15.72
1807882.93 272251.31 -15.72
1807876.63 272256.23 -15.65
1807870.32 272261.15 -15.65
1807864.01 272266.08 -16.11
1807857.71 272271.00 -15.72
1807851.40 272275.92 -15.81
1807845.09 272280.84 -15.88
1807838.79 272285.76 -15.98
1807832.48 272290.69 -16.17
1807826.17 272295.61 -16.17
1807819.87 272300.53 -16.17
1807813.56 272305.45 -15.88
1807807.25 272310.37 -15.75
1807800.95 272315.30 -15.65
1807794.64 272320.22 -15.75
1807788.33 272325.14 -15.85
1807782.03 272330.06 -15.94
1807775.72 272334.98 -16.21
1807769.41 272339.91 -15.85
1807763.11 272344.83 -15.85
1807756.80 272349.75 -15.91
1807750.49 272354.67 -16.01
1807744.19 272359.59 -16.24
1807737.88 272364.52 -16.47
1807731.57 272369.44 -16.21
1807725.27 272374.36 -16.21
1807718.96 272379.28 -16.54
1807712.65 272384.20 -16.21
1807706.35 272389.13 -16.83
1807700.04 272394.05 -17.13
1807693.73 272398.97 -17.09
1807687.43 272403.89 -16.99
1807681.12 272408.81 -17.19
1807674.81 272413.74 -17.13
1807668.51 272418.66 -17.13
1807662.20 272423.58 -17.32
1807655.89 272428.50 -17.29
1807649.59 272433.42 -17.39
1807643.28 272438.35 -17.09
1807636.97 272443.27 -17.42
1807630.67 272448.19 -17.22
1807624.36 272453.11 -17.22
1807618.05 272458.03 -17.72
1807611.75 272462.96 -17.49
1807605.44 272467.88 -17.68
1807599.13 272472.80 -17.49
1807592.83 272477.72 -17.59
1807586.52 272482.64 -17.81
1807580.21 272487.57 -17.59
1807573.91 272492.49 -17.72
1807567.60 272497.41 -17.72
1807561.29 272502.33 -17.81
1807554.99 272507.25 -17.85
1807548.68 272512.18 -17.98
1807542.37 272517.10 -17.88
1807536.07 272522.02 -17.88
1807529.76 272526.94 -17.85
1807523.45 272531.86 -17.65
1807517.15 272536.79 -17.95
1807510.84 272541.71 -17.88
1807485.61 272561.40 -17.26
1807479.31 272566.32 -17.49
1807473.00 272571.24 -17.59
1807466.69 272576.16 -17.52
1807460.39 272581.08 -17.13
1807454.08 272586.01 -17.03
1807447.77 272590.93 -17.22
1807441.47 272595.85 -17.06
1807435.16 272600.77 -16.86
1807428.85 272605.69 -16.86
1807422.55 272610.62 -16.86
1807416.24 272615.54 -16.86
1807409.93 272620.46 -16.86
1807403.63 272625.38 -16.80
1807397.32 272630.30 -16.99
1807391.01 272635.23 -16.90
1807384.71 272640.15 -16.60
1807378.40 272645.07 -16.40
1807372.09 272649.99 -16.31
1807365.79 272654.91 -16.50
1807359.48 272659.84 -16.11
1807353.17 272664.76 -16.31
1807346.87 272669.68 -16.31
1807340.56 272674.60 -16.11
1807334.25 272679.52 -16.31
1807327.95 272684.45 -16.31
1807321.64 272689.37 -16.08
1807315.33 272694.29 -16.08
1807309.03 272699.21 -16.17
1807302.72 272704.13 -15.88
1807296.41 272709.06 -16.08
1807290.11 272713.98 -16.04
1807283.80 272718.90 -15.75
1807277.49 272723.82 -15.85
1807271.19 272728.74 -15.78
1807264.88 272733.67 -15.78
1807258.57 272738.59 -15.78
1807252.27 272743.51 -15.81
1807245.96 272748.43 -15.78
1807239.65 272753.35 -15.88
1807233.35 272758.28 -15.81
1807227.04 272763.20 -15.35
1807220.73 272768.12 -15.19
1807214.43 272773.04 -14.96
1807208.12 272777.96 -14.76
1807201.81 272782.89 -14.57
1807195.51 272787.81 -14.70
1807189.20 272792.73 -14.30
1807182.89 272797.65 -14.21
1807176.59 272802.57 -14.27
1807170.28 272807.50 -14.11
1807163.97 272812.42 -13.81
1807157.67 272817.34 -13.71
1807151.36 272822.26 -13.75
1807145.05 272827.18 -13.55
1807138.75 272832.11 -13.48
1807132.44 272837.03 -13.71
1807126.13 272841.95 -13.48
1807119.83 272846.87 -13.48
1807113.52 272851.79 -13.39
1807107.21 272856.72 -13.48
1807100.91 272861.64 -13.12
1807094.60 272866.56 -13.12
1807088.29 272871.48 -13.35
1807081.99 272876.40 -12.96
1807075.68 272881.33 -12.99
1807069.37 272886.25 -13.19
1807063.07 272891.17 -13.02
1807056.76 272896.09 -13.12
1807050.45 272901.01 -12.83
1807044.15 272905.94 -12.83
1807037.84 272910.86 -13.02
1807031.53 272915.78 -13.16
1807025.23 272920.70 -12.96
1807018.92 272925.62 -12.86
1807012.61 272930.55 -12.93
1807006.31 272935.47 -13.22
1807000.00 272940.39 -12.80
1806993.69 272945.31 -12.57
1806987.39 272950.23 -12.40
1806981.08 272955.16 -12.40
1806974.77 272960.08 -12.40
1806968.47 272965.00 -12.24
1806962.16 272969.92 -12.24
1806955.85 272974.84 -12.14
1806949.55 272979.77 -12.04
1806943.24 272984.69 -12.27
1806936.93 272989.61 -12.01
1806930.63 272994.53 -11.91
1806924.32 272999.45 -12.01
1806918.01 273004.38 -12.01
1806911.71 273009.30 -11.78
1806905.40 273014.22 -12.01
1806899.09 273019.14 -12.01
1806892.79 273024.06 -12.11
1806886.48 273028.99 -12.40
1806880.17 273033.91 -12.30
1806873.87 273038.83 -12.30
1806867.56 273043.75 -12.34
1806861.25 273048.67 -12.34
1806854.95 273053.60 -12.53
1806848.64 273058.52 -12.66
1806842.33 273063.44 -12.43
1806836.03 273068.36 -12.73
1806829.72 273073.28 -12.57
1806823.41 273078.21 -12.63
1806817.11 273083.13 -12.43
1806810.80 273088.05 -12.50
1806804.49 273092.97 -12.47
1806798.19 273097.89 -12.40
1806791.88 273102.82 -12.37
1806785.57 273107.74 -12.57
1806779.27 273112.66 -12.27
1806772.96 273117.58 -12.40
1806766.65 273122.50 -12.50
1806760.35 273127.43 -12.53
1806754.04 273132.35 -12.73
1806747.73 273137.27 -12.66
1806741.43 273142.19 -12.80
1806735.12 273147.11 -12.89
1806728.81 273152.04 -12.93
1806722.51 273156.96 -12.80
1806716.20 273161.88 -12.86
1806709.89 273166.80 -13.16
1806703.59 273171.72 -13.52
1806697.28 273176.65 -13.65
1806690.97 273181.57 -13.71
1806684.67 273186.49 -13.62
1806678.36 273191.41 -13.81
1806672.05 273196.33 -13.75
1806665.75 273201.26 -13.48
1806659.44 273206.18 -13.48
1806653.13 273211.10 -13.48
1806646.83 273216.02 -13.91
1806640.52 273220.94 -13.62
1806634.21 273225.87 -13.52
1806627.91 273230.79 -13.58
1806621.60 273235.71 -13.68
1806615.29 273240.63 -13.78
1806608.99 273245.55 -13.48
1806602.68 273250.48 -13.39
1806596.37 273255.40 -13.29
1806590.07 273260.32 -13.29
1806583.76 273265.24 -13.52
1806577.45 273270.16 -13.42
1806571.15 273275.08 -13.42
1806564.84 273280.01 -13.29
1806558.53 273284.93 -13.52
1806552.23 273289.85 -13.94
1806545.92 273294.77 -13.71
1806539.61 273299.69 -14.04
1806533.31 273304.62 -14.24
1806527.00 273309.54 -14.47
1806520.69 273314.46 -14.60
1806514.39 273319.38 -14.60
1806508.08 273324.30 -14.76
1806501.77 273329.23 -14.86
1806495.47 273334.15 -14.67
1806489.16 273339.07 -14.73
1806482.85 273343.99 -14.96
1806476.55 273348.91 -14.83
1806470.24 273353.84 -14.89
1806463.93 273358.76 -14.53
1806457.63 273363.68 -14.44
1806451.32 273368.60 -14.63
1806445.01 273373.52 -14.99
1806438.71 273378.45 -14.96
1806432.40 273383.37 -15.09
1806426.09 273388.29 -15.22
1806419.79 273393.21 -15.39
1806413.48 273398.13 -15.39
1806407.17 273403.06 -15.62
1806400.87 273407.98 -15.94
1806394.56 273412.90 -15.62
1806388.25 273417.82 -15.26
1806381.95 273422.74 -15.19
1806375.64 273427.67 -15.09
1806369.33 273432.59 -15.29
1806363.03 273437.51 -15.42
1806356.72 273442.43 -15.52
1806350.41 273447.35 -15.26
1806344.11 273452.28 -14.99
1806337.80 273457.20 -14.99
1806331.49 273462.12 -14.63
1806325.19 273467.04 -14.70
1806318.88 273471.96 -15.03
1806312.57 273476.89 -15.16
1806306.27 273481.81 -14.83
1806299.96 273486.73 -14.83
1806293.65 273491.65 -15.12
1806287.35 273496.57 -15.16
1806281.04 273501.50 -15.52
1806274.73 273506.42 -15.68
1806268.43 273511.34 -15.91
1806262.12 273516.26 -15.65
1806255.81 273521.18 -15.49
1806249.51 273526.11 -15.75
1806243.20 273531.03 -15.68
1806236.89 273535.95 -15.68
1806230.59 273540.87 -15.72
1806224.28 273545.79 -15.19
1806217.97 273550.72 -15.19
1806211.67 273555.64 -15.98
1806205.36 273560.56 -15.85
1806199.05 273565.48 -15.98
1806192.75 273570.40 -16.27
1806186.44 273575.33 -16.21
1806180.13 273580.25 -16.08
1806173.83 273585.17 -16.24
1806167.52 273590.09 -16.31
1806161.21 273595.01 -16.63
1806154.91 273599.94 -16.60
1806148.60 273604.86 -16.50
1809729.40 270820.40 -22.54
1809723.09 270825.32 -22.24
1809716.79 270830.24 -22.34
1809710.48 270835.16 -22.47
1809704.17 270840.08 -21.88
1809697.87 270845.01 -21.82
1809691.56 270849.93 -21.78
1809685.25 270854.85 -22.01
1809678.95 270859.77 -21.56
1809672.64 270864.69 -21.26
1809666.33 270869.62 -21.29
1809660.03 270874.54 -21.59
1809653.72 270879.46 -21.39
1809647.41 270884.38 -20.93
1809641.11 270889.30 -20.67
1809634.80 270894.23 -20.96
1809628.49 270899.15 -21.19
1809622.19 270904.07 -21.23
1809615.88 270908.99 -21.29
1809609.57 270913.91 -21.29
1809603.27 270918.84 -21.26
1809596.96 270923.76 -20.90
1809590.65 270928.68 -20.73
1809584.35 270933.60 -20.44
1809578.04 270938.52 -20.93
1809571.73 270943.45 -20.05
1809565.43 270948.37 -20.05
1809559.12 270953.29 -20.01
1809552.81 270958.21 -19.85
1809546.51 270963.13 -19.88
1809540.20 270968.06 -19.59
1809533.89 270972.98 -19.49
1809527.59 270977.90 -19.65
1809521.28 270982.82 -19.32
1809514.97 270987.74 -18.83
1809508.67 270992.67 -18.83
1809502.36 270997.59 -19.03
1809496.05 271002.51 -19.29
1809489.75 271007.43 -19.29
1809483.44 271012.35 -19.36
1809477.13 271017.28 -19.65
1809470.83 271022.20 -19.06
1809464.52 271027.12 -18.90
1809458.21 271032.04 -18.73
1809451.91 271036.96 -18.93
1809445.60 271041.89 -19.06
1809439.29 271046.81 -18.83
1809432.99 271051.73 -18.67
1809426.68 271056.65 -18.67
1809420.37 271061.57 -18.80
1809414.07 271066.50 -18.31
1809407.76 271071.42 -18.41
1809401.45 271076.34 -18.64
1809395.15 271081.26 -18.41
1809388.84 271086.18 -18.04
1809382.53 271091.11 -17.91
1809376.23 271096.03 -18.01
1809369.92 271100.95 -18.11
1809363.61 271105.87 -17.72
1809357.31 271110.79 -17.91
1809351.00 271115.72 -17.68
1809344.69 271120.64 -17.19
1809338.39 271125.56 -17.45
1809332.08 271130.48 -16.80
1809325.77 271135.40 -16.80
1809319.47 271140.33 -16.80
1809313.16 271145.25 -16.99
1809306.85 271150.17 -16.80
1809300.55 271155.09 -16.80
1809294.24 271160.01 -16.50
1809287.93 271164.94 -16.50
1809281.63 271169.86 -16.37
1809275.32 271174.78 -16.57
1809269.01 271179.70 -16.17
1809262.71 271184.62 -16.17
1809256.40 271189.55 -16.40
1809250.09 271194.47 -16.83
1809243.79 271199.39 -16.34
1809237.48 271204.31 -16.11
1809231.17 271209.23 -16.14
1809224.87 271214.16 -16.44
1809218.56 271219.08 -16.17
1809212.25 271224.00 -16.11
1809205.95 271228.92 -15.91
1809199.64 271233.84 -15.91
1809193.33 271238.77 -15.81
1809187.03 271243.69 -16.04
1809180.72 271248.61 -15.58
1809174.41 271253.53 -15.58
1809168.11 271258.45 -15.98
1809161.80 271263.38 -15.81
1809155.49 271268.30 -15.75
1809149.19 271273.22 -16.04
1809142.88 271278.14 -15.85
1809136.57 271283.06 -15.94
1809130.27 271287.99 -15.98
1809123.96 271292.91 -15.88
1809117.65 271297.83 -15.45
1809092.43 271317.52 -15.72
1809086.12 271322.44 -15.45
1809079.81 271327.36 -15.26
1809073.51 271332.28 -15.52
1809067.20 271337.21 -15.45
1809060.89 271342.13 -15.58
1809054.59 271347.05 -15.72
1809048.28 271351.97 -15.42
1809041.97 271356.89 -14.96
1809035.67 271361.82 -14.96
1809029.36 271366.74 -15.52
1809023.05 271371.66 -15.22
1809016.75 271376.58 -15.26
1809010.44 271381.50 -14.86
1809004.13 271386.43 -14.96
1808997.83 271391.35 -14.96
1808991.52 271396.27 -15.16
1808985.21 271401.19 -14.40
1808978.91 271406.11 -14.50
1808972.60 271411.04 -14.80
1808966.29 271415.96 -14.60
1808959.99 271420.88 -14.04
1808953.68 271425.80 -14.34
1808947.37 271430.72 -14.24
1808941.07 271435.65 -14.01
1808934.76 271440.57 -13.88
1808928.45 271445.49 -14.11
1808922.15 271450.41 -14.01
1808915.84 271455.33 -14.01
1808909.53 271460.26 -14.21
1808903.23 271465.18 -13.68
1808896.92 271470.10 -13.88
1808890.61 271475.02 -13.98
1808884.31 271479.94 -13.88
1808878.00 271484.87 -13.88
1808871.69 271489.79 -14.07
1808865.39 271494.71 -14.11
1808859.08 271499.63 -13.58
1808852.77 271504.55 -13.58
1808846.47 271509.48 -13.78
1808840.16 271514.40 -13.45
1808833.85 271519.32 -13.55
1808827.55 271524.24 -13.58
1808821.24 271529.16 -13.58
1808814.93 271534.09 -13.55
1808808.63 271539.01 -13.42
1808802.32 271543.93 -13.71
1808796.01 271548.85 -13.68
1808789.71 271553.77 -13.58
1808770.79 271568.54 -13.88
1808764.48 271573.46 -14.04
1808758.17 271578.38 -14.01
1808751.87 271583.30 -14.17
1808745.56 271588.23 -13.98
1808739.25 271593.15 -14.21
1808732.95 271598.07 -14.37
1808726.64 271602.99 -13.91
1808720.33 271607.91 -13.42
1808714.03 271612.84 -13.45
1808707.72 271617.76 -13.78
1808701.41 271622.68 -13.55
1808695.11 271627.60 -13.45
1808688.80 271632.52 -13.75
1808682.49 271637.45 -13.16
1808676.19 271642.37 -13.25
1808669.88 271647.29 -13.35
1808663.57 271652.21 -13.45
1808657.27 271657.13 -12.93
1808650.96 271662.06 -13.12
1808644.65 271666.98 -13.42
1808638.35 271671.90 -13.22
1808632.04 271676.82 -12.99
1808625.73 271681.74 -12.99
1808619.43 271686.67 -13.09
1808613.12 271691.59 -13.09
1808606.81 271696.51 -13.19
1808600.51 271701.43 -12.99
1808594.20 271706.35 -12.99
1808587.89 271711.28 -12.96
1808581.59 271716.20 -13.25
1808575.28 271721.12 -13.35
1808568.97 271726.04 -13.06
1808562.67 271730.96 -13.25
1808556.36 271735.89 -13.16
1808550.05 271740.81 -13.35
1808543.75 271745.73 -13.02
1808537.44 271750.65 -12.83
1808531.13 271755.57 -12.93
1808524.83 271760.50 -13.22
1808518.52 271765.42 -12.86
1808512.21 271770.34 -12.96
1808505.91 271775.26 -13.02
1808499.60 271780.18 -12.86
1808493.29 271785.11 -12.76
1808486.99 271790.03 -13.02
1808480.68 271794.95 -12.93
1808474.37 271799.87 -13.12
1808468.07 271804.79 -13.22
1808461.76 271809.72 -13.32
1808455.45 271814.64 -13.06
1808449.15 271819.56 -13.25
1808442.84 271824.48 -13.45
1808436.53 271829.40 -13.25
1808430.23 271834.33 -13.48
1808423.92 271839.25 -13.32
1808417.61 271844.17 -13.22
1808411.31 271849.09 -13.16
1808405.00 271854.01 -13.32
1808398.69 271858.94 -13.25
1808392.39 271863.86 -13.12
1808386.08 271868.78 -13.09
1808379.77 271873.70 -13.19
1808373.47 271878.62 -13.39
1808367.16 271883.55 -12.99
1808360.85 271888.47 -12.99
1808354.55 271893.39 -13.19
1808348.24 271898.31 -13.42
1808341.93 271903.23 -12.99
1808335.63 271908.16 -13.29
1808329.32 271913.08 -13.09
1808323.01 271918.00 -13.09
1808316.71 271922.92 -13.19
1808310.40 271927.84 -13.02
1808304.09 271932.77 -13.12
1808297.79 271937.69 -13.09
1808291.48 271942.61 -13.19
1808285.17 271947.53 -13.09
1808278.87 271952.45 -13.29
1808272.56 271957.38 -13.09
1808266.25 271962.30 -13.19
1808259.95 271967.22 -13.19
1808253.64 271972.14 -12.99
1808247.33 271977.06 -13.09
1808241.03 271981.99 -12.99
1808234.72 271986.91 -13.09
1808228.41 271991.83 -13.09
1808222.11 271996.75 -12.99
1808215.80 272001.67 -13.09
1808209.49 272006.60 -13.29
1808203.19 272011.52 -13.19
1808196.88 272016.44 -13.09
1808190.57 272021.36 -13.09
1808184.27 272026.28 -13.62
1808177.96 272031.21 -13.48
1808171.65 272036.13 -13.81
1808165.35 272041.05 -13.58
1808159.04 272045.97 -13.75
1808152.73 272050.89 -13.35
1808146.43 272055.82 -13.42
1808140.12 272060.74 -13.65
1808133.81 272065.66 -13.52
1808127.51 272070.58 -13.52
1808121.20 272075.50 -13.65
1808114.89 272080.43 -13.65
1808108.59 272085.35 -13.65
1808102.28 272090.27 -13.68
1808095.97 272095.19 -13.68
1808089.67 272100.11 -13.75
1808083.36 272105.04 -13.85
1808077.05 272109.96 -14.01
1808070.75 272114.88 -14.01
1808064.44 272119.80 -13.91
1808058.13 272124.72 -14.14
1808051.83 272129.65 -14.17
1808045.52 272134.57 -14.47
1808039.21 272139.49 -14.24
1808032.91 272144.41 -14.24
1808026.60 272149.33 -14.17
1808020.30 272154.26 -14.63
1808013.99 272159.18 -14.99
1808007.68 272164.10 -14.89
1808001.38 272169.02 -14.99
1807995.07 272173.94 -15.03
1807988.76 272178.87 -15.03
1807982.46 272183.79 -15.22
1807976.15 272188.71 -14.93
1807969.84 272193.63 -15.03
1807963.54 272198.55 -15.03
1807957.23 272203.48 -15.12
1807950.92 272208.40 -15.12
1807944.62 272213.32 -15.22
1807938.31 272218.24 -15.19
1807932.00 272223.16 -14.96
1807925.70 272228.09 -14.93
1807919.39 272233.01 -14.73
1807913.08 272237.93 -15.12
1807906.78 272242.85 -15.03
1807900.47 272247.77 -15.16
1807894.16 272252.70 -15.16
1807887.86 272257.62 -15.09
1807881.55 272262.54 -15.06
1807875.24 272267.46 -15.35
1807868.94 272272.38 -15.72
1807862.63 272277.31 -15.12
1807856.32 272282.23 -15.12
1807850.02 272287.15 -15.65
1807843.71 272292.07 -15.35
1807837.40 272296.99 -15.55
1807831.10 272301.92 -15.45
1807824.79 272306.84 -15.62
1807818.48 272311.76 -15.72
1807812.18 272316.68 -15.58
1807805.87 272321.60 -15.68
1807799.56 272326.53 -15.68
1807793.26 272331.45 -15.68
1807786.95 272336.37 -15.98
1807780.64 272341.29 -15.91
1807774.34 272346.21 -15.78
1807768.03 272351.14 -15.98
1807761.72 272356.06 -15.85
1807755.42 272360.98 -16.14
1807749.11 272365.90 -15.98
1807742.80 272370.82 -16.50
1807736.50 272375.75 -16.01
1807730.19 272380.67 -16.21
1807723.88 272385.59 -16.21
1807717.58 272390.51 -16.21
1807711.27 272395.43 -16.44
1807704.96 272400.36 -16.54
1807698.66 272405.28 -16.63
1807692.35 272410.20 -16.57
1807686.04 272415.12 -16.77
1807679.74 272420.04 -16.54
1807673.43 272424.97 -16.54
1807667.12 272429.89 -16.83
1807660.82 272434.81 -16.47
1807654.51 272439.73 -16.47
1807648.20 272444.65 -16.67
1807641.90 272449.58 -16.96
1807635.59 272454.50 -16.90
1807629.28 272459.42 -16.90
1807622.98 272464.34 -16.96
1807616.67 272469.26 -17.16
1807610.36 272474.19 -17.36
1807604.06 272479.11 -17.06
1807597.75 272484.03 -17.09
1807591.44 272488.95 -17.59
1807585.14 272493.87 -17.36
1807578.83 272498.80 -17.26
1807572.52 272503.72 -17.39
1807566.22 272508.64 -17.39
1807559.91 272513.56 -17.36
1807553.60 272518.48 -17.36
1807547.30 272523.41 -17.65
1807540.99 272528.33 -17.91
1807534.68 272533.25 -17.81
1807528.38 272538.17 -17.72
1807522.07 272543.09 -17.81
1807515.76 272548.02 -17.81
1807509.46 272552.94 -17.88
1807503.15 272557.86 -17.88
1807496.84 272562.78 -17.81
1807490.54 272567.70 -17.81
1807484.23 272572.63 -17.95
1807477.92 272577.55 -17.95
1807471.62 272582.47 -18.04
1807452.70 272597.23 -17.78
1807446.39 272602.16 -17.26
1807440.08 272607.08 -17.59
1807433.78 272612.00 -17.26
1807427.47 272616.92 -16.96
1807421.16 272621.84 -17.06
1807414.86 272626.77 -17.06
1807408.55 272631.69 -17.09
1807402.24 272636.61 -16.77
1807395.94 272641.53 -16.86
1807389.63 272646.45 -16.77
1807383.32 272651.38 -16.57
1807377.02 272656.30 -16.70
1807370.71 272661.22 -16.80
1807364.40 272666.14 -16.40
1807358.10 272671.06 -16.21
1807351.79 272675.99 -16.21
1807345.48 272680.91 -16.11
1807339.18 272685.83 -16.31
1807332.87 272690.75 -16.21
1807326.56 272695.67 -16.21
1807320.26 272700.60 -16.11
1807313.95 272705.52 -16.21
1807307.64 272710.44 -15.98
1807301.34 272715.36 -16.08
1807295.03 272720.28 -16.17
1807288.72 272725.21 -15.75
1807282.42 272730.13 -15.75
1807276.11 272735.05 -15.91
1807269.80 272739.97 -15.72
1807263.50 272744.89 -15.72
1807257.19 272749.82 -15.72
1807250.88 272754.74 -15.52
1807244.58 272759.66 -15.68
1807238.27 272764.58 -15.85
1807231.96 272769.50 -15.58
1807225.66 272774.43 -15.19
1807219.35 272779.35 -15.06
1807213.04 272784.27 -14.89
1807206.74 272789.19 -14.67
1807200.43 272794.11 -14.89
1807194.12 272799.04 -15.12
1807187.82 272803.96 -15.09
1807181.51 272808.88 -14.89
1807175.20 272813.80 -14.89
1807168.90 272818.72 -14.67
1807162.59 272823.65 -13.98
1807156.28 272828.57 -14.01
1807149.98 272833.49 -13.91
1807143.67 272838.41 -13.88
1807137.36 272843.33 -13.62
1807131.06 272848.26 -13.42
1807124.75 272853.18 -13.71
1807118.44 272858.10 -13.35
1807112.14 272863.02 -13.48
1807105.83 272867.94 -13.65
1807099.52 272872.87 -13.25
1807093.22 272877.79 -13.35
1807086.91 272882.71 -13.19
1807080.60 272887.63 -12.96
1807074.30 272892.55 -13.06
1807067.99 272897.48 -13.06
1807061.68 272902.40 -13.09
1807055.38 272907.32 -12.70
1807049.07 272912.24 -12.70
1807042.76 272917.16 -13.02
1807036.46 272922.09 -13.22
1807030.15 272927.01 -12.93
1807023.84 272931.93 -12.73
1807017.54 272936.85 -13.12
1807011.23 272941.77 -12.89
1807004.92 272946.70 -12.86
1806998.62 272951.62 -12.96
1806992.31 272956.54 -13.12
1806986.00 272961.46 -12.66
1806979.70 272966.38 -12.66
1806973.39 272971.31 -12.40
1806967.08 272976.23 -12.14
1806960.78 272981.15 -12.14
1806954.47 272986.07 -12.04
1806948.16 272990.99 -12.24
1806941.86 272995.92 -11.98
1806935.55 273000.84 -12.01
1806929.24 273005.76 -12.20
1806922.94 273010.68 -11.91
1806916.63 273015.60 -11.81
1806910.32 273020.53 -12.01
1806904.02 273025.45 -12.01
1806897.71 273030.37 -11.91
1806891.40 273035.29 -12.20
1806885.10 273040.21 -12.11
1806878.79 273045.14 -12.07
1806872.48 273050.06 -12.37
1806866.18 273054.98 -12.47
1806859.87 273059.90 -12.40
1806853.56 273064.82 -12.50
1806847.26 273069.75 -12.50
1806840.95 273074.67 -12.86
1806834.64 273079.59 -12.73
1806828.34 273084.51 -12.93
1806822.03 273089.43 -12.53
1806815.72 273094.36 -12.43
1806809.42 273099.28 -12.43
1806803.11 273104.20 -12.17
1806796.80 273109.12 -12.30
1806790.50 273114.04 -12.57
1806784.19 273118.97 -12.30
1806777.88 273123.89 -12.37
1806771.58 273128.81 -12.57
1806765.27 273133.73 -12.37
1806758.96 273138.65 -12.60
1806752.66 273143.58 -12.40
1806746.35 273148.50 -12.53
1806740.04 273153.42 -12.60
1806733.74 273158.34 -12.47
1806727.43 273163.26 -12.70
1806721.12 273168.19 -13.06
1806714.82 273173.11 -12.83
1806708.51 273178.03 -13.06
1806702.20 273182.95 -13.06
1806695.90 273187.87 -13.29
1806689.59 273192.80 -13.48
1806683.28 273197.72 -13.71
1806676.98 273202.64 -13.45
1806670.67 273207.56 -13.52
1806664.36 273212.48 -13.65
1806658.06 273217.41 -13.58
1806651.75 273222.33 -13.88
1806645.44 273227.25 -13.58
1806639.14 273232.17 -13.62
1806632.83 273237.09 -13.85
1806626.52 273242.02 -13.91
1806620.22 273246.94 -13.71
1806613.91 273251.86 -13.35
1806607.60 273256.78 -13.39
1806601.30 273261.70 -13.29
1806594.99 273266.63 -13.39
1806588.68 273271.55 -13.29
1806582.38 273276.47 -13.29
1806576.07 273281.39 -13.29
1806569.76 273286.31 -13.52
1806563.46 273291.24 -13.65
1806557.15 273296.16 -13.88
1806550.84 273301.08 -13.62
1806544.54 273306.00 -13.68
1806538.23 273310.92 -14.11
1806531.92 273315.85 -14.34
1806525.62 273320.77 -14.34
1806519.31 273325.69 -14.63
1806513.00 273330.61 -14.73
1806506.70 273335.53 -14.93
1806500.39 273340.46 -14.89
1806494.08 273345.38 -14.96
1806487.78 273350.30 -14.80
1806481.47 273355.22 -14.93
1806475.16 273360.14 -14.67
1806468.86 273365.07 -14.60
1806462.55 273369.99 -14.60
1806456.24 273374.91 -14.63
1806449.94 273379.83 -14.73
1806443.63 273384.75 -14.73
1806437.32 273389.68 -15.03
1806431.02 273394.60 -15.42
1806424.71 273399.52 -15.52
1806418.40 273404.44 -15.58
1806412.10 273409.36 -15.68
1806405.79 273414.29 -15.32
1806399.48 273419.21 -15.32
1806393.18 273424.13 -15.32
1806386.87 273429.05 -15.03
1806380.56 273433.97 -15.16
1806374.26 273438.90 -15.26
1806367.95 273443.82 -15.49
1806361.64 273448.74 -15.62
1806355.34 273453.66 -15.22
1806349.03 273458.58 -15.03
1806342.72 273463.51 -15.06
1806336.42 273468.43 -14.89
1806330.11 273473.35 -15.09
1806323.80 273478.27 -15.03
1806317.50 273483.19 -14.99
1806311.19 273488.12 -15.09
1806304.88 273493.04 -14.89
1806298.58 273497.96 -14.99
1806292.27 273502.88 -15.29
1806285.96 273507.80 -15.45
1806279.66 273512.73 -15.78
1806273.35 273517.65 -15.65
1806267.04 273522.57 -15.75
1806260.74 273527.49 -15.49
1806254.43 273532.41 -15.85
1806248.12 273537.34 -16.24
1806241.82 273542.26 -16.24
1806235.51 273547.18 -16.11
1806229.20 273552.10 -16.21
1806222.90 273557.02 -15.91
1806216.59 273561.95 -15.91
1806210.28 273566.87 -16.01
1806203.98 273571.79 -16.11
1806197.67 273576.71 -16.21
1806191.36 273581.63 -16.08
1806185.06 273586.56 -16.17
1806178.75 273591.48 -16.60
1806172.44 273596.40 -16.47
1806166.14 273601.32 -16.47
1806159.83 273606.24 -16.44
1806153.52 273611.16 -16.34
1806147.22 273616.09 -16.54
1806140.91 273621.01 -16.73
1806134.60 273625.93 -16.93
1809734.32 270826.70 -22.01
1809728.02 270831.63 -21.92
1809721.71 270836.55 -22.11
1809715.40 270841.47 -22.08
1809709.10 270846.39 -21.82
1809702.79 270851.31 -21.42
1809696.48 270856.24 -21.42
1809690.18 270861.16 -21.13
1809683.87 270866.08 -21.33
1809677.56 270871.00 -21.26
1809671.26 270875.92 -21.06
1809664.95 270880.85 -20.83
1809658.64 270885.77 -20.93
1809652.34 270890.69 -21.03
1809646.03 270895.61 -21.00
1809639.72 270900.53 -21.03
1809633.42 270905.45 -21.23
1809627.11 270910.38 -21.03
