1809765.34 270676.69 -20.96
1809758.88 270681.40 -20.96
1809752.41 270686.11 -20.93
1809745.94 270690.82 -20.73
1809739.47 270695.53 -20.77
1809733.00 270700.23 -20.44
1809726.54 270704.94 -20.37
1809720.07 270709.65 -20.28
1809713.60 270714.36 -20.18
1809707.13 270719.07 -20.05
1809700.66 270723.77 -20.51
1809694.19 270728.48 -20.37
1809687.73 270733.19 -19.95
1809681.26 270737.90 -20.18
1809674.79 270742.61 -21.13
1809668.32 270747.31 -20.93
1809661.85 270752.02 -21.03
1809655.39 270756.73 -21.03
1809648.92 270761.44 -21.03
1809642.45 270766.14 -21.03
1809635.98 270770.85 -21.16
1809629.51 270775.56 -21.16
1809623.05 270780.27 -21.16
1809616.58 270784.98 -21.69
1809610.11 270789.68 -21.69
1809603.64 270794.39 -21.59
1809597.17 270799.10 -21.59
1809590.71 270803.81 -21.59
1809584.24 270808.52 -21.56
1809577.77 270813.22 -22.57
1809571.30 270817.93 -22.57
1809564.83 270822.64 -22.47
1809558.37 270827.35 -22.47
1809551.90 270832.06 -22.38
1809545.43 270836.76 -22.34
1809538.96 270841.47 -22.54
1809532.49 270846.18 -22.47
1809526.03 270850.89 -22.47
1809519.56 270855.60 -22.44
1809513.09 270860.30 -22.34
1809506.62 270865.01 -22.24
1809500.15 270869.72 -21.88
1809493.69 270874.43 -21.92
1809487.22 270879.14 -21.88
1809480.75 270883.84 -21.75
1809474.28 270888.55 -21.62
1809467.81 270893.26 -21.72
1809461.35 270897.97 -21.49
1809454.88 270902.67 -21.29
1809448.41 270907.38 -21.29
1809441.94 270912.09 -21.49
1809435.47 270916.80 -21.59
1809429.01 270921.51 -21.56
1809815.33 270650.21 -21.10
1809808.86 270654.91 -21.19
1809802.39 270659.62 -21.10
1809795.92 270664.33 -20.93
1809789.46 270669.04 -20.83
1809782.99 270673.75 -20.87
1809776.52 270678.45 -20.80
1809770.05 270683.16 -20.67
1809763.58 270687.87 -20.77
1809757.12 270692.58 -20.64
1809750.65 270697.29 -20.54
1809744.18 270701.99 -20.54
1809737.71 270706.70 -20.47
1809731.24 270711.41 -20.60
1809724.77 270716.12 -20.51
1809718.31 270720.83 -20.51
1809711.84 270725.53 -21.23
1809705.37 270730.24 -21.13
1809698.90 270734.95 -20.90
1809692.43 270739.66 -21.03
1809685.97 270744.37 -21.03
1809679.50 270749.07 -20.93
1809673.03 270753.78 -21.03
1809666.56 270758.49 -21.36
1809660.09 270763.20 -21.26
1809653.63 270767.91 -21.16
1809647.16 270772.61 -21.59
1809640.69 270777.32 -21.59
1809634.22 270782.03 -21.62
1809627.75 270786.74 -21.92
1809621.29 270791.44 -21.62
1809614.82 270796.15 -21.82
1809608.35 270800.86 -22.57
1809601.88 270805.57 -22.54
1809595.41 270810.28 -22.54
1809588.95 270814.98 -22.60
1809582.48 270819.69 -22.60
1809576.01 270824.40 -22.60
1809569.54 270829.11 -22.77
1809563.07 270833.82 -22.74
1809556.61 270838.52 -22.41
1809550.14 270843.23 -22.41
1809543.67 270847.94 -22.41
1809537.20 270852.65 -22.31
1809530.73 270857.36 -22.31
1809524.27 270862.06 -21.78
1809517.80 270866.77 -21.85
1809511.33 270871.48 -22.05
1809504.86 270876.19 -21.72
1809498.39 270880.90 -21.75
1809491.93 270885.60 -21.82
1809485.46 270890.31 -21.59
1809478.99 270895.02 -21.65
1809472.52 270899.73 -21.65
1809466.05 270904.43 -21.56
1809459.59 270909.14 -21.36
1809453.12 270913.85 -21.42
1809446.65 270918.56 -21.52
1809440.18 270923.27 -21.16
1809433.71 270927.97 -21.06
1811462.91 269460.86 -9.58
1811456.45 269465.57 -9.35
1811449.98 269470.28 -9.19
1811443.51 269474.98 -9.25
1811437.04 269479.69 -9.88
1811430.57 269484.40 -10.07
1811424.11 269489.11 -10.10
1811417.64 269493.82 -10.30
1811411.17 269498.52 -10.60
1811404.70 269503.23 -10.50
1811398.23 269507.94 -10.24
1811391.77 269512.65 -10.14
1811385.30 269517.36 -9.94
1811378.83 269522.06 -10.10
1811372.36 269526.77 -10.01
1811365.89 269531.48 -9.94
1811359.43 269536.19 -10.10
1811352.96 269540.90 -10.07
1811346.49 269545.60 -10.07
1811340.02 269550.31 -10.17
1811333.55 269555.02 -10.27
1811327.09 269559.73 -10.17
1811320.62 269564.44 -10.37
1811314.15 269569.14 -10.66
1811307.68 269573.85 -10.99
1811301.21 269578.56 -10.89
1811294.75 269583.27 -10.96
1811288.28 269587.98 -11.06
1811281.81 269592.68 -11.06
1811275.34 269597.39 -11.15
1811268.87 269602.10 -11.25
1811262.41 269606.81 -11.25
1811255.94 269611.51 -11.55
1811249.47 269616.22 -11.55
1811243.00 269620.93 -11.06
1811236.53 269625.64 -11.29
1811230.07 269630.35 -11.38
1811223.60 269635.05 -11.19
1811217.13 269639.76 -11.38
1811210.66 269644.47 -11.45
1811204.19 269649.18 -11.45
1811197.73 269653.89 -11.45
1811191.26 269658.59 -11.29
1811184.79 269663.30 -11.65
1811178.32 269668.01 -11.58
1811171.85 269672.72 -11.38
1811165.39 269677.43 -11.48
1811158.92 269682.13 -11.48
1811152.45 269686.84 -11.48
1811145.98 269691.55 -11.58
1809845.91 270637.84 -21.36
1809839.44 270642.55 -21.29
1809832.97 270647.26 -21.19
1809826.50 270651.97 -21.06
1809820.04 270656.67 -20.96
1809813.57 270661.38 -20.93
1809807.10 270666.09 -20.93
1809800.63 270670.80 -20.93
1809794.16 270675.51 -21.23
1809787.70 270680.21 -21.16
1809781.23 270684.92 -20.87
1809774.76 270689.63 -20.80
1809768.29 270694.34 -20.87
1809761.82 270699.05 -20.83
1809755.36 270703.75 -20.93
1809748.89 270708.46 -20.87
1809742.42 270713.17 -20.83
1809735.95 270717.88 -20.83
1809729.48 270722.59 -20.93
1809723.01 270727.29 -21.13
1809716.55 270732.00 -21.13
1809710.08 270736.71 -21.03
1809703.61 270741.42 -21.13
1809697.14 270746.13 -21.36
1809690.67 270750.83 -21.36
1809684.21 270755.54 -21.36
1809677.74 270760.25 -21.69
1809671.27 270764.96 -21.59
1809664.80 270769.67 -21.59
1809658.33 270774.37 -21.82
1809651.87 270779.08 -21.65
1809645.40 270783.79 -21.85
1809638.93 270788.50 -21.65
1809632.46 270793.20 -22.64
1809625.99 270797.91 -22.67
1809619.53 270802.62 -22.70
1809613.06 270807.33 -22.77
1809606.59 270812.04 -22.57
1809600.12 270816.74 -22.87
1809593.65 270821.45 -22.60
1809587.19 270826.16 -22.57
1809580.72 270830.87 -22.47
1809574.25 270835.58 -22.47
1809567.78 270840.28 -22.24
1809561.31 270844.99 -22.15
1809554.85 270849.70 -22.15
1809548.38 270854.41 -22.15
1809541.91 270859.12 -22.24
1809535.44 270863.82 -22.08
1809528.97 270868.53 -22.01
1809522.51 270873.24 -21.82
1809516.04 270877.95 -21.98
1809509.57 270882.66 -21.88
1809503.10 270887.36 -21.78
1809496.63 270892.07 -21.92
1809490.17 270896.78 -21.88
1809483.70 270901.49 -21.49
1809477.23 270906.20 -21.16
1809470.76 270910.90 -21.03
1809464.29 270915.61 -20.96
1809457.83 270920.32 -21.06
1809451.36 270925.03 -21.06
1809444.89 270929.73 -21.26
1809438.42 270934.44 -21.19
1811538.77 269415.54 -8.89
1811532.30 269420.25 -8.92
1811525.84 269424.96 -9.06
1811519.37 269429.67 -9.25
1811512.90 269434.37 -9.55
1811506.43 269439.08 -9.55
1811499.96 269443.79 -9.97
1811493.49 269448.50 -10.14
1811487.03 269453.21 -10.40
1811480.56 269457.91 -10.33
1811474.09 269462.62 -9.51
1811467.62 269467.33 -9.32
1811461.15 269472.04 -9.32
1811454.69 269476.74 -9.42
1811448.22 269481.45 -9.45
1811441.75 269486.16 -9.74
1811435.28 269490.87 -9.74
1811428.81 269495.58 -9.97
1811422.35 269500.28 -10.33
1811415.88 269504.99 -10.53
1811409.41 269509.70 -10.04
1811402.94 269514.41 -9.94
1811396.47 269519.12 -9.94
1811390.01 269523.82 -10.24
1811383.54 269528.53 -10.24
1811377.07 269533.24 -9.94
1811370.60 269537.95 -10.14
1811364.13 269542.66 -10.24
1811357.67 269547.36 -10.07
1811351.20 269552.07 -10.17
1811344.73 269556.78 -10.17
1811338.26 269561.49 -10.07
1811331.79 269566.20 -10.27
1811325.33 269570.90 -10.37
1811318.86 269575.61 -10.56
1811312.39 269580.32 -10.63
1811305.92 269585.03 -10.83
1811299.45 269589.74 -10.76
1811292.99 269594.44 -10.76
1811286.52 269599.15 -10.86
1811280.05 269603.86 -11.06
1811273.58 269608.57 -11.06
1811267.11 269613.27 -11.15
1811260.65 269617.98 -11.15
1811254.18 269622.69 -11.06
1811247.71 269627.40 -11.09
1811241.24 269632.11 -11.22
1811234.77 269636.81 -11.22
1811228.31 269641.52 -11.12
1811221.84 269646.23 -11.12
1811215.37 269650.94 -11.19
1811208.90 269655.65 -11.22
1811202.43 269660.35 -11.32
1811195.97 269665.06 -11.52
1811189.50 269669.77 -11.55
1811183.03 269674.48 -11.32
1811176.56 269679.19 -11.42
1811170.09 269683.89 -11.42
1811163.63 269688.60 -11.25
1811157.16 269693.31 -11.32
1811150.69 269698.02 -11.52
1811144.22 269702.73 -11.61
1811137.75 269707.43 -11.61
1811131.29 269712.14 -11.52
1811124.82 269716.85 -11.61
1811118.35 269721.56 -11.91
1811111.88 269726.27 -11.91
1811105.41 269730.97 -12.11
1811098.95 269735.68 -11.91
1811092.48 269740.39 -11.91
1811086.01 269745.10 -12.20
1811079.54 269749.80 -11.91
1811073.07 269754.51 -12.17
1811066.61 269759.22 -12.07
1811060.14 269763.93 -12.20
1809876.49 270625.48 -21.46
1809870.02 270630.19 -21.26
1809863.55 270634.90 -21.36
1809857.08 270639.60 -21.10
1809850.62 270644.31 -21.19
1809844.15 270649.02 -21.23
1809837.68 270653.73 -21.19
1809831.21 270658.43 -21.29
1809824.74 270663.14 -21.10
1809818.28 270667.85 -21.06
1809811.81 270672.56 -20.93
1809805.34 270677.27 -20.93
1809798.87 270681.97 -20.77
1809792.40 270686.68 -20.67
1809785.94 270691.39 -20.67
1809779.47 270696.10 -20.67
1809773.00 270700.81 -20.67
1809766.53 270705.51 -20.67
1809760.06 270710.22 -20.77
1809753.59 270714.93 -20.87
1809747.13 270719.64 -21.46
1809740.66 270724.35 -21.36
1809734.19 270729.05 -21.36
1809727.72 270733.76 -21.26
1809721.25 270738.47 -21.46
1809714.79 270743.18 -21.69
1809708.32 270747.89 -21.69
1809701.85 270752.59 -21.69
1809695.38 270757.30 -21.69
1809688.91 270762.01 -22.08
1809682.45 270766.72 -21.88
1809675.98 270771.43 -21.62
1809669.51 270776.13 -22.67
1809663.04 270780.84 -22.67
1809656.57 270785.55 -22.67
1809650.11 270790.26 -22.74
1809643.64 270794.96 -22.77
1809637.17 270799.67 -22.77
1809630.70 270804.38 -22.80
1809624.23 270809.09 -22.74
1809617.77 270813.80 -22.64
1809611.30 270818.50 -22.64
1809604.83 270823.21 -22.31
1809598.36 270827.92 -22.38
1809591.89 270832.63 -22.28
1809585.43 270837.34 -22.21
1809578.96 270842.04 -22.21
1809572.49 270846.75 -22.18
1809566.02 270851.46 -22.28
1809559.55 270856.17 -22.21
1809553.09 270860.88 -22.08
1809546.62 270865.58 -22.18
1809540.15 270870.29 -22.08
1809533.68 270875.00 -22.38
1809527.21 270879.71 -21.85
1809520.75 270884.42 -21.36
1809514.28 270889.12 -21.36
1809507.81 270893.83 -21.46
1809501.34 270898.54 -21.36
1809494.87 270903.25 -21.46
1809488.41 270907.96 -21.16
1809481.94 270912.66 -21.19
1809475.47 270917.37 -21.19
1809469.00 270922.08 -21.23
1809462.53 270926.79 -21.39
1809456.07 270931.49 -21.23
1809449.60 270936.20 -21.33
1809443.13 270940.91 -21.52
1813490.36 268004.92 -6.17
1813483.89 268009.63 -6.07
1813477.42 268014.34 -6.27
1811614.63 269370.22 -9.25
1811608.16 269374.93 -9.45
1811601.69 269379.64 -9.78
1811595.22 269384.35 -10.17
1811588.76 269389.05 -10.30
1811582.29 269393.76 -10.43
1811575.82 269398.47 -10.40
1811569.35 269403.18 -10.40
1811562.88 269407.89 -9.65
1811556.42 269412.59 -9.02
1811549.95 269417.30 -8.89
1811543.48 269422.01 -8.89
1811537.01 269426.72 -8.96
1811530.54 269431.43 -8.96
1811524.08 269436.13 -8.96
1811517.61 269440.84 -9.06
1811511.14 269445.55 -9.35
1811504.67 269450.26 -9.65
1811498.20 269454.97 -10.01
1811491.73 269459.67 -10.24
1811485.27 269464.38 -10.04
1811478.80 269469.09 -9.71
1811472.33 269473.80 -9.51
1811465.86 269478.51 -9.55
1811459.39 269483.21 -9.55
1811452.93 269487.92 -9.58
1811446.46 269492.63 -9.74
1811439.99 269497.34 -9.97
1811433.52 269502.04 -10.27
1811427.05 269506.75 -10.63
1811420.59 269511.46 -10.33
1811414.12 269516.17 -10.33
1811407.65 269520.88 -10.14
1811401.18 269525.58 -10.43
1811394.71 269530.29 -10.56
1811388.25 269535.00 -10.04
1811381.78 269539.71 -10.33
1811375.31 269544.42 -10.24
1811368.84 269549.12 -10.24
1811362.37 269553.83 -10.47
1811355.91 269558.54 -10.47
1811349.44 269563.25 -10.37
1811342.97 269567.96 -10.56
1811336.50 269572.66 -10.47
1811330.03 269577.37 -10.66
1811323.57 269582.08 -10.93
1811317.10 269586.79 -10.93
1811310.63 269591.50 -10.79
1811304.16 269596.20 -10.70
1811297.69 269600.91 -11.09
1811291.23 269605.62 -10.99
1811284.76 269610.33 -11.15
1811278.29 269615.03 -11.19
1811271.82 269619.74 -11.29
1811265.35 269624.45 -11.09
1811258.89 269629.16 -11.12
1811252.42 269633.87 -11.12
1811245.95 269638.57 -11.35
1811239.48 269643.28 -11.15
1811233.01 269647.99 -11.15
1811226.55 269652.70 -11.06
1811220.08 269657.41 -11.42
1811213.61 269662.11 -11.42
1811207.14 269666.82 -11.52
1811200.67 269671.53 -11.61
1811194.21 269676.24 -11.48
1811187.74 269680.95 -11.61
1811181.27 269685.65 -11.52
1811174.80 269690.36 -11.52
1811168.33 269695.07 -11.29
1811161.87 269699.78 -11.52
1811155.40 269704.49 -11.61
1811148.93 269709.19 -11.81
1811142.46 269713.90 -11.61
1811135.99 269718.61 -11.61
1811129.53 269723.32 -11.71
1811123.06 269728.03 -11.81
1811116.59 269732.73 -11.61
1811110.12 269737.44 -11.94
1811103.65 269742.15 -11.94
1811097.19 269746.86 -12.14
1811090.72 269751.56 -12.14
1811084.25 269756.27 -11.98
1811077.78 269760.98 -11.84
1811071.31 269765.69 -12.04
1811064.84 269770.40 -12.07
1811058.38 269775.10 -12.14
1811051.91 269779.81 -12.14
1811045.44 269784.52 -12.11
1811038.97 269789.23 -12.30
1811032.50 269793.94 -12.27
1811026.04 269798.64 -12.37
1811019.57 269803.35 -12.40
1811013.10 269808.06 -12.40
1811006.63 269812.77 -12.66
1809900.60 270617.82 -21.46
1809894.13 270622.53 -21.46
1809887.66 270627.24 -21.23
1809881.20 270631.95 -21.00
1809874.73 270636.66 -21.10
1809868.26 270641.36 -21.00
1809861.79 270646.07 -21.13
1809855.32 270650.78 -21.26
1809848.86 270655.49 -21.26
1809842.39 270660.20 -21.10
1809835.92 270664.90 -21.13
1809829.45 270669.61 -20.93
1809822.98 270674.32 -20.83
1809816.52 270679.03 -20.83
1809810.05 270683.73 -20.87
1809803.58 270688.44 -20.87
1809797.11 270693.15 -20.96
1809790.64 270697.86 -20.96
1809784.17 270702.57 -21.26
1809777.71 270707.27 -21.16
1809771.24 270711.98 -21.16
1809764.77 270716.69 -21.56
1809758.30 270721.40 -21.56
1809751.83 270726.11 -21.65
1809745.37 270730.81 -21.69
1809738.90 270735.52 -21.75
1809732.43 270740.23 -21.69
1809725.96 270744.94 -22.08
1809719.49 270749.65 -21.69
1809713.03 270754.35 -21.78
1809706.56 270759.06 -21.72
1809700.09 270763.77 -22.74
1809693.62 270768.48 -22.64
1809687.15 270773.19 -22.67
1809680.69 270777.89 -22.80
1809674.22 270782.60 -22.80
1809667.75 270787.31 -22.80
1809661.28 270792.02 -22.80
1809654.81 270796.72 -23.06
1809648.35 270801.43 -22.74
1809641.88 270806.14 -22.70
1809635.41 270810.85 -22.51
1809628.94 270815.56 -22.47
1809622.47 270820.26 -22.38
1809616.01 270824.97 -22.47
1809609.54 270829.68 -22.31
1809603.07 270834.39 -22.31
1809596.60 270839.10 -22.31
1809590.13 270843.80 -22.21
1809583.67 270848.51 -22.31
1809577.20 270853.22 -22.08
1809570.73 270857.93 -21.85
1809564.26 270862.64 -21.75
1809557.79 270867.34 -21.95
1809551.33 270872.05 -21.85
1809544.86 270876.76 -21.65
1809538.39 270881.47 -21.75
1809531.92 270886.18 -21.75
1809525.45 270890.88 -21.69
1809518.99 270895.59 -21.39
1809512.52 270900.30 -21.59
1809506.05 270905.01 -21.52
1809499.58 270909.72 -21.52
1809493.11 270914.42 -21.72
1809486.65 270919.13 -21.42
1809480.18 270923.84 -21.06
1809473.71 270928.55 -21.03
1809467.24 270933.25 -21.46
1809460.77 270937.96 -21.26
1809454.31 270942.67 -21.16
1809447.84 270947.38 -21.33
1813495.06 268011.39 -6.04
1813488.60 268016.10 -5.94
1813482.13 268020.81 -6.04
1813475.66 268025.52 -6.20
1813469.19 268030.22 -5.91
1813462.72 268034.93 -5.91
1813456.26 268039.64 -5.97
1813449.79 268044.35 -6.07
1813443.32 268049.05 -5.91
1811709.89 269310.78 -9.28
1811703.42 269315.49 -9.28
1811696.95 269320.20 -9.48
1811690.48 269324.90 -9.48
1811684.02 269329.61 -9.28
1811677.55 269334.32 -9.28
1811671.08 269339.03 -9.28
1811664.61 269343.74 -9.28
1811658.14 269348.44 -9.58
1811651.68 269353.15 -9.91
1811645.21 269357.86 -8.46
1811638.74 269362.57 -8.37
1811632.27 269367.27 -8.46
1811625.80 269371.98 -8.69
1811619.34 269376.69 -8.96
1811612.87 269381.40 -9.35
1811606.40 269386.11 -9.65
1811599.93 269390.81 -10.07
1811593.46 269395.52 -10.17
1811587.00 269400.23 -10.24
1811580.53 269404.94 -10.33
1811574.06 269409.65 -9.51
1811567.59 269414.35 -9.09
1811561.12 269419.06 -8.99
1811554.66 269423.77 -8.96
1811548.19 269428.48 -8.96
1811541.72 269433.19 -8.99
1811535.25 269437.89 -8.89
1811528.78 269442.60 -8.99
1811522.31 269447.31 -9.19
1811515.85 269452.02 -9.48
1811509.38 269456.73 -9.84
1811502.91 269461.43 -10.40
1811496.44 269466.14 -10.53
1811489.97 269470.85 -10.24
1811483.51 269475.56 -10.14
1811477.04 269480.27 -9.84
1811470.57 269484.97 -9.61
1811464.10 269489.68 -9.61
1811457.63 269494.39 -9.71
1811451.17 269499.10 -10.07
1811444.70 269503.80 -10.37
1811438.23 269508.51 -10.47
1811431.76 269513.22 -10.27
1811425.29 269517.93 -10.17
1811418.83 269522.64 -10.17
1811412.36 269527.34 -10.07
1811405.89 269532.05 -10.07
1811399.42 269536.76 -9.97
1811392.95 269541.47 -9.97
1811386.49 269546.18 -10.17
1811380.02 269550.88 -10.17
1811373.55 269555.59 -10.17
1811367.08 269560.30 -10.37
1811360.61 269565.01 -10.07
1811354.15 269569.72 -10.17
1811347.68 269574.42 -10.17
1811341.21 269579.13 -10.37
1811334.74 269583.84 -10.66
1811328.27 269588.55 -10.56
1811321.81 269593.26 -10.66
1811315.34 269597.96 -10.73
1811308.87 269602.67 -10.73
1811302.40 269607.38 -10.93
1811295.93 269612.09 -11.02
1811289.47 269616.80 -11.02
1811283.00 269621.50 -11.32
1811276.53 269626.21 -11.32
1811270.06 269630.92 -11.32
1811263.59 269635.63 -11.32
1811257.13 269640.33 -11.12
1811250.66 269645.04 -11.22
1811244.19 269649.75 -11.22
1811237.72 269654.46 -11.22
1811231.25 269659.17 -11.32
1811224.79 269663.87 -11.52
1811218.32 269668.58 -11.42
1811211.85 269673.29 -11.42
1811205.38 269678.00 -11.61
1811198.91 269682.71 -11.61
1811192.45 269687.41 -11.55
1811185.98 269692.12 -11.45
1811179.51 269696.83 -11.55
1811173.04 269701.54 -11.71
1811166.57 269706.25 -11.75
1811160.11 269710.95 -11.75
1811153.64 269715.66 -11.81
1811147.17 269720.37 -12.04
1811140.70 269725.08 -12.04
1811134.23 269729.79 -12.04
1811127.77 269734.49 -12.04
1811121.30 269739.20 -12.04
1811114.83 269743.91 -12.34
1811108.36 269748.62 -12.14
1811101.89 269753.32 -12.14
1811095.42 269758.03 -12.24
1811088.96 269762.74 -12.27
1811082.49 269767.45 -12.07
1811076.02 269772.16 -12.07
1811069.55 269776.86 -12.30
1811063.08 269781.57 -12.14
1811056.62 269786.28 -12.24
1811050.15 269790.99 -12.14
1811043.68 269795.70 -12.14
1811037.21 269800.40 -11.98
1811030.74 269805.11 -12.14
1811024.28 269809.82 -12.24
1811017.81 269814.53 -12.34
1811011.34 269819.24 -12.47
1811004.87 269823.94 -12.57
1810998.40 269828.65 -12.63
1810991.94 269833.36 -12.80
1810985.47 269838.07 -12.80
1810979.00 269842.78 -12.80
1810972.53 269847.48 -12.80
1810966.06 269852.19 -12.80
1809931.18 270605.46 -21.42
1809924.71 270610.17 -21.39
1809918.24 270614.88 -21.49
1809911.78 270619.58 -21.10
1809905.31 270624.29 -21.10
1809898.84 270629.00 -21.10
1809892.37 270633.71 -21.19
1809885.90 270638.42 -21.23
1809879.44 270643.12 -21.26
1809872.97 270647.83 -21.06
1809866.50 270652.54 -20.96
1809860.03 270657.25 -20.73
1809853.56 270661.96 -21.13
1809847.10 270666.66 -20.93
1809840.63 270671.37 -20.83
1809834.16 270676.08 -20.93
1809827.69 270680.79 -21.06
1809821.22 270685.49 -21.06
1809814.76 270690.20 -21.06
1809808.29 270694.91 -21.46
1809801.82 270699.62 -21.56
1809795.35 270704.33 -21.52
1809788.88 270709.03 -21.62
1809782.41 270713.74 -21.46
1809775.95 270718.45 -21.56
1809769.48 270723.16 -21.59
1809763.01 270727.87 -21.69
1809756.54 270732.57 -21.78
1809750.07 270737.28 -21.82
1809743.61 270741.99 -22.60
1809737.14 270746.70 -22.74
1809730.67 270751.41 -22.64
1809724.20 270756.11 -22.64
1809717.73 270760.82 -22.67
1809711.27 270765.53 -22.70
1809704.80 270770.24 -22.80
1809698.33 270774.95 -22.77
1809691.86 270779.65 -22.97
1809685.39 270784.36 -23.00
1809678.93 270789.07 -22.93
1809672.46 270793.78 -22.90
1809665.99 270798.49 -22.93
1809659.52 270803.19 -22.44
1809653.05 270807.90 -22.44
1809646.59 270812.61 -22.44
1809640.12 270817.32 -22.47
1809633.65 270822.02 -22.60
1809627.18 270826.73 -22.41
1809620.71 270831.44 -22.34
1809614.25 270836.15 -22.34
1809607.78 270840.86 -21.88
1809601.31 270845.56 -21.78
1809594.84 270850.27 -21.78
1809588.37 270854.98 -21.92
1809581.91 270859.69 -21.75
1809575.44 270864.40 -21.65
1809568.97 270869.10 -21.98
1809562.50 270873.81 -22.08
1809556.03 270878.52 -21.92
1809549.57 270883.23 -21.78
1809543.10 270887.94 -21.82
1809536.63 270892.64 -22.01
1809530.16 270897.35 -21.72
1809523.69 270902.06 -21.46
1809517.23 270906.77 -21.52
1809510.76 270911.48 -21.26
1809504.29 270916.18 -21.39
1809497.82 270920.89 -21.78
1809491.35 270925.60 -21.88
1809484.89 270930.31 -21.49
1809478.42 270935.01 -21.52
1809471.95 270939.72 -21.29
1809465.48 270944.43 -21.13
1809459.01 270949.14 -21.23
1809452.55 270953.85 -20.96
1813538.58 267989.61 -6.63
1813532.11 267994.32 -6.53
1813525.64 267999.03 -6.43
1813499.77 268017.86 -6.04
1813493.30 268022.57 -6.04
1813486.84 268027.28 -6.04
1813480.37 268031.98 -6.17
1813473.90 268036.69 -5.87
1813467.43 268041.40 -5.64
1813460.96 268046.11 -5.87
1813454.50 268050.82 -5.84
1813448.03 268055.52 -5.81
1813441.56 268060.23 -5.91
1813435.09 268064.94 -6.00
1813428.62 268069.65 -6.07
1813422.16 268074.35 -5.87
1813053.48 268342.71 -6.40
1813047.01 268347.41 -6.59
1813040.54 268352.12 -6.30
1813034.07 268356.83 -6.36
1813027.61 268361.54 -6.40
1813021.14 268366.25 -6.27
1813014.67 268370.95 -6.30
1813008.20 268375.66 -6.30
1813001.73 268380.37 -6.36
1812995.27 268385.08 -6.40
1811766.34 269279.58 -9.19
1811759.87 269284.29 -9.19
1811753.40 269289.00 -9.25
1811746.94 269293.71 -8.92
1811740.47 269298.42 -8.83
1811734.00 269303.12 -8.76
1811727.53 269307.83 -8.96
1811721.06 269312.54 -8.96
1811714.60 269317.25 -9.22
1811708.13 269321.96 -9.22
1811701.66 269326.66 -9.42
1811695.19 269331.37 -9.12
1811688.72 269336.08 -9.12
1811682.26 269340.79 -9.22
1811675.79 269345.50 -9.02
1811669.32 269350.20 -9.12
1811662.85 269354.91 -9.42
1811656.38 269359.62 -9.06
1811649.92 269364.33 -8.66
1811643.45 269369.03 -8.46
1811636.98 269373.74 -8.63
1811630.51 269378.45 -8.63
1811624.04 269383.16 -8.99
1811617.58 269387.87 -9.28
1811611.11 269392.57 -9.58
1811604.64 269397.28 -10.10
1811598.17 269401.99 -10.20
1811591.70 269406.70 -10.27
1811585.24 269411.41 -10.27
1811578.77 269416.11 -9.48
1811572.30 269420.82 -9.32
1811565.83 269425.53 -9.02
1811559.36 269430.24 -8.99
1811552.89 269434.95 -9.02
1811546.43 269439.65 -9.02
1811539.96 269444.36 -9.02
1811533.49 269449.07 -9.12
1811527.02 269453.78 -9.42
1811520.55 269458.49 -9.71
1811514.09 269463.19 -9.84
1811507.62 269467.90 -10.04
1811501.15 269472.61 -10.24
1811494.68 269477.32 -10.07
1811488.21 269482.03 -10.07
1811481.75 269486.73 -9.88
1811475.28 269491.44 -9.97
1811468.81 269496.15 -9.65
1811462.34 269500.86 -9.65
1811455.87 269505.56 -10.17
1811449.41 269510.27 -10.56
1811442.94 269514.98 -10.37
1811436.47 269519.69 -10.17
1811430.00 269524.40 -10.07
1811423.53 269529.10 -10.17
1811417.07 269533.81 -10.17
1811410.60 269538.52 -10.17
1811404.13 269543.23 -10.37
1811397.66 269547.94 -10.56
1811391.19 269552.64 -10.17
1811384.73 269557.35 -10.47
1811378.26 269562.06 -10.56
1811371.79 269566.77 -10.27
1811365.32 269571.48 -10.47
1811358.85 269576.18 -10.47
1811352.39 269580.89 -10.37
1811345.92 269585.60 -10.56
1811339.45 269590.31 -10.56
1811332.98 269595.02 -10.56
1811326.51 269599.72 -10.86
1811320.05 269604.43 -10.86
1811313.58 269609.14 -10.86
1811307.11 269613.85 -10.96
1811300.64 269618.56 -11.15
1811294.17 269623.26 -11.15
1811287.71 269627.97 -11.25
1811281.24 269632.68 -11.55
1811274.77 269637.39 -11.35
1811268.30 269642.09 -11.35
1811261.83 269646.80 -10.96
1811255.37 269651.51 -11.25
1811248.90 269656.22 -11.25
1811242.43 269660.93 -11.25
1811235.96 269665.63 -11.45
1811229.49 269670.34 -11.65
1811223.03 269675.05 -11.55
1811216.56 269679.76 -11.65
1811210.09 269684.47 -11.84
1811203.62 269689.17 -11.65
1811197.15 269693.88 -11.55
1811190.69 269698.59 -11.65
1811184.22 269703.30 -11.75
1811177.75 269708.01 -11.75
1811171.28 269712.71 -11.98
1811164.81 269717.42 -11.98
1811158.35 269722.13 -11.84
1811151.88 269726.84 -11.75
1811145.41 269731.55 -11.75
1811138.94 269736.25 -11.75
1811132.47 269740.96 -11.75
1811126.00 269745.67 -12.07
1811119.54 269750.38 -12.17
1811113.07 269755.09 -12.27
1811106.60 269759.79 -12.37
1811100.13 269764.50 -12.27
1811093.66 269769.21 -12.27
1811087.20 269773.92 -12.27
1811080.73 269778.62 -12.53
1811074.26 269783.33 -12.53
1811067.79 269788.04 -12.63
1811061.32 269792.75 -12.43
1811054.86 269797.46 -12.53
1811048.39 269802.16 -12.53
1811041.92 269806.87 -12.24
1811035.45 269811.58 -12.14
1811028.98 269816.29 -12.14
1811022.52 269821.00 -12.30
1811016.05 269825.70 -12.50
1811009.58 269830.41 -12.50
1811003.11 269835.12 -12.73
1810996.64 269839.83 -12.73
1810990.18 269844.54 -12.83
1810983.71 269849.24 -12.93
1810977.24 269853.95 -13.02
1810970.77 269858.66 -12.89
1810964.30 269863.37 -12.89
1810957.84 269868.08 -12.96
1810951.37 269872.78 -12.96
1810944.90 269877.49 -12.96
1810938.43 269882.20 -12.99
1810931.96 269886.91 -12.89
1810925.50 269891.62 -12.99
1810919.03 269896.32 -12.99
1809994.10 270569.56 -21.16
1809987.63 270574.26 -21.26
1809981.16 270578.97 -21.26
1809974.70 270583.68 -21.29
1809968.23 270588.39 -21.19
1809961.76 270593.10 -21.39
1809955.29 270597.80 -21.69
1809948.82 270602.51 -21.56
1809942.36 270607.22 -20.90
1809935.89 270611.93 -21.16
1809929.42 270616.64 -21.16
1809922.95 270621.34 -21.19
1809916.48 270626.05 -21.19
1809910.02 270630.76 -21.23
1809903.55 270635.47 -21.23
1809897.08 270640.18 -21.36
1809890.61 270644.88 -21.36
1809884.14 270649.59 -21.13
1809877.68 270654.30 -21.13
1809871.21 270659.01 -20.93
1809864.74 270663.72 -20.83
1809858.27 270668.42 -21.16
1809851.80 270673.13 -21.06
1809845.34 270677.84 -21.16
1809838.87 270682.55 -21.56
1809832.40 270687.25 -21.59
1809825.93 270691.96 -21.49
1809819.46 270696.67 -21.59
1809812.99 270701.38 -21.59
1809806.53 270706.09 -21.59
1809800.06 270710.79 -21.56
1809793.59 270715.50 -22.54
1809787.12 270720.21 -22.54
1809780.65 270724.92 -22.60
1809774.19 270729.63 -22.60
1809767.72 270734.33 -22.60
1809761.25 270739.04 -22.64
1809754.78 270743.75 -22.70
1809748.31 270748.46 -22.67
1809741.85 270753.17 -22.70
1809735.38 270757.87 -22.77
1809728.91 270762.58 -22.87
1809722.44 270767.29 -22.54
1809715.97 270772.00 -22.54
1809709.51 270776.71 -22.54
1809703.04 270781.41 -22.54
1809696.57 270786.12 -22.31
1809690.10 270790.83 -22.41
1809683.63 270795.54 -22.54
1809677.17 270800.25 -22.64
1809670.70 270804.95 -22.64
1809664.23 270809.66 -22.41
1809657.76 270814.37 -22.44
1809651.29 270819.08 -22.41
1809644.83 270823.78 -22.41
1809638.36 270828.49 -21.95
1809631.89 270833.20 -22.05
1809625.42 270837.91 -21.75
1809618.95 270842.62 -21.85
1809612.49 270847.32 -22.08
1809606.02 270852.03 -21.88
1809599.55 270856.74 -22.18
1809593.08 270861.45 -22.18
1809586.61 270866.16 -22.11
1809580.15 270870.86 -21.82
1809573.68 270875.57 -21.92
1809567.21 270880.28 -22.21
1809560.74 270884.99 -22.01
1809554.27 270889.70 -21.88
1809547.81 270894.40 -21.72
1809541.34 270899.11 -22.01
1809534.87 270903.82 -21.75
1809528.40 270908.53 -21.56
1809521.93 270913.24 -21.59
1809515.47 270917.94 -21.49
1809509.00 270922.65 -21.52
1809502.53 270927.36 -21.72
1809496.06 270932.07 -21.56
1809489.59 270936.78 -21.56
1809483.13 270941.48 -21.46
1809476.66 270946.19 -21.23
1809470.19 270950.90 -21.06
1809463.72 270955.61 -21.46
1809457.25 270960.31 -20.80
1813543.29 267996.08 -6.33
1813536.82 268000.79 -6.43
1813530.35 268005.50 -6.30
1813523.88 268010.20 -6.43
1813517.42 268014.91 -6.10
1813510.95 268019.62 -6.20
1813504.48 268024.33 -6.10
1813498.01 268029.04 -5.91
1813491.54 268033.74 -6.04
1813485.08 268038.45 -6.23
1813478.61 268043.16 -6.07
1813472.14 268047.87 -5.87
1813465.67 268052.58 -5.84
1813459.20 268057.28 -5.74
1813452.74 268061.99 -6.00
1813446.27 268066.70 -6.00
1813439.80 268071.41 -5.94
1813433.33 268076.11 -5.61
1813426.86 268080.82 -5.84
1813420.40 268085.53 -6.04
1813413.93 268090.24 -6.07
1813407.46 268094.95 -6.10
1813400.99 268099.65 -6.10
1813090.53 268325.64 -6.10
1813084.06 268330.34 -6.27
1813077.59 268335.05 -6.27
1813071.12 268339.76 -6.36
1813064.65 268344.47 -6.23
1813058.19 268349.17 -6.23
1813051.72 268353.88 -6.40
1813045.25 268358.59 -6.30
1813038.78 268363.30 -6.17
1813032.31 268368.01 -5.97
1813025.85 268372.71 -6.23
1813019.38 268377.42 -6.20
1813012.91 268382.13 -6.23
1813006.44 268386.84 -6.33
1812999.97 268391.55 -6.33
1812890.02 268471.58 -6.56
1812883.55 268476.29 -6.36
1812877.08 268481.00 -6.40
1812870.61 268485.70 -6.50
1812864.14 268490.41 -6.73
1812857.68 268495.12 -6.53
1812851.21 268499.83 -6.53
1812844.74 268504.54 -6.59
1812838.27 268509.24 -6.73
1812831.80 268513.95 -6.73
1811809.86 269257.80 -9.19
1811803.39 269262.51 -8.76
1811796.92 269267.22 -8.99
1811790.45 269271.93 -9.09
1811783.98 269276.64 -8.73
1811777.52 269281.34 -8.73
1811771.05 269286.05 -8.83
1811764.58 269290.76 -8.96
1811758.11 269295.47 -8.96
1811751.64 269300.18 -8.76
1811745.18 269304.88 -8.66
1811738.71 269309.59 -8.66
1811732.24 269314.30 -8.96
1811725.77 269319.01 -8.96
1811719.30 269323.72 -9.02
1811712.84 269328.42 -9.02
1811706.37 269333.13 -9.32
1811699.90 269337.84 -9.42
1811693.43 269342.55 -9.12
1811686.96 269347.26 -9.22
1811680.50 269351.96 -9.12
1811674.03 269356.67 -9.42
1811667.56 269361.38 -9.71
1811661.09 269366.09 -9.42
1811654.62 269370.80 -8.96
1811648.16 269375.50 -8.86
1811641.69 269380.21 -8.73
1811635.22 269384.92 -8.92
1811628.75 269389.63 -9.12
1811622.28 269394.33 -9.32
1811615.82 269399.04 -9.61
1811609.35 269403.75 -9.94
1811602.88 269408.46 -10.33
1811596.41 269413.17 -10.33
1811589.94 269417.87 -10.33
1811583.48 269422.58 -9.22
1811577.01 269427.29 -9.02
1811570.54 269432.00 -9.06
1811564.07 269436.71 -9.06
1811557.60 269441.41 -9.02
1811551.13 269446.12 -9.06
1811544.67 269450.83 -9.15
1811538.20 269455.54 -9.35
1811531.73 269460.25 -9.65
1811525.26 269464.95 -9.68
1811518.79 269469.66 -9.68
1811512.33 269474.37 -9.97
1811505.86 269479.08 -10.27
1811499.39 269483.79 -10.47
1811492.92 269488.49 -10.17
1811486.45 269493.20 -10.01
1811479.99 269497.91 -10.01
1811473.52 269502.62 -9.91
1811467.05 269507.33 -10.17
1811460.58 269512.03 -10.27
1811454.11 269516.74 -10.56
1811447.65 269521.45 -10.60
1811441.18 269526.16 -10.20
1811434.71 269530.86 -10.50
1811428.24 269535.57 -10.20
1811421.77 269540.28 -10.50
1811415.31 269544.99 -10.50
1811408.84 269549.70 -10.60
1811402.37 269554.40 -10.70
1811395.90 269559.11 -10.70
1811389.43 269563.82 -10.79
1811382.97 269568.53 -10.66
1811376.50 269573.24 -10.66
1811370.03 269577.94 -10.76
1811363.56 269582.65 -10.66
1811357.09 269587.36 -10.86
1811350.63 269592.07 -10.76
1811344.16 269596.78 -11.06
1811337.69 269601.48 -11.09
1811331.22 269606.19 -11.09
1811324.75 269610.90 -10.99
1811318.29 269615.61 -10.99
1811311.82 269620.32 -11.19
1811305.35 269625.02 -11.09
1811298.88 269629.73 -11.09
1811292.41 269634.44 -11.48
1811285.95 269639.15 -11.78
1811279.48 269643.85 -11.38
1811273.01 269648.56 -11.29
1811266.54 269653.27 -11.48
1811260.07 269657.98 -11.29
1811253.61 269662.69 -11.29
1811247.14 269667.39 -11.58
1811240.67 269672.10 -11.68
1811234.20 269676.81 -11.48
1811227.73 269681.52 -11.58
1811221.27 269686.23 -11.75
1811214.80 269690.93 -11.98
1811208.33 269695.64 -11.84
1811201.86 269700.35 -11.75
1811195.39 269705.06 -11.84
1811188.93 269709.77 -11.84
1811182.46 269714.47 -11.84
1811175.99 269719.18 -12.07
1811169.52 269723.89 -12.37
1811163.05 269728.60 -11.84
1811156.59 269733.31 -11.84
1811150.12 269738.01 -11.84
1811143.65 269742.72 -11.98
1811137.18 269747.43 -12.07
1811130.71 269752.14 -12.27
1811124.24 269756.85 -12.37
1811117.78 269761.55 -12.47
1811111.31 269766.26 -12.47
1811104.84 269770.97 -12.37
1811098.37 269775.68 -12.47
1811091.90 269780.38 -12.57
1811085.44 269785.09 -12.57
1811078.97 269789.80 -12.57
1811072.50 269794.51 -12.37
1811066.03 269799.22 -12.47
1811059.56 269803.92 -12.57
1811053.10 269808.63 -12.34
1811046.63 269813.34 -12.47
1811040.16 269818.05 -12.37
1811033.69 269822.76 -12.57
1811027.22 269827.46 -12.53
1811020.76 269832.17 -12.83
1811014.29 269836.88 -12.83
1811007.82 269841.59 -12.93
1811001.35 269846.30 -12.83
1810994.88 269851.00 -12.83
1810988.42 269855.71 -12.93
1810981.95 269860.42 -12.93
1810975.48 269865.13 -12.96
1810969.01 269869.84 -13.06
1810962.54 269874.54 -13.09
1810956.08 269879.25 -13.06
1810949.61 269883.96 -13.06
1810943.14 269888.67 -13.02
1810936.67 269893.38 -13.02
1810930.20 269898.08 -13.06
1810923.74 269902.79 -13.12
1810917.27 269907.50 -12.99
1810910.80 269912.21 -13.16
1810904.33 269916.91 -13.06
1810897.86 269921.62 -13.09
1810891.40 269926.33 -13.16
1810884.93 269931.04 -13.19
1810050.55 270538.36 -20.93
1810044.08 270543.07 -21.03
1810037.62 270547.78 -21.06
1810031.15 270552.49 -21.03
1810024.68 270557.19 -20.96
1810018.21 270561.90 -21.10
1810011.74 270566.61 -20.87
1810005.28 270571.32 -20.87
1809998.81 270576.02 -21.19
1809992.34 270580.73 -21.26
1809985.87 270585.44 -21.33
1809979.40 270590.15 -21.33
1809972.94 270594.86 -21.26
1809966.47 270599.56 -21.23
1809960.00 270604.27 -20.73
1809953.53 270608.98 -20.90
1809947.06 270613.69 -20.90
1809940.60 270618.40 -20.90
1809934.13 270623.10 -21.16
1809927.66 270627.81 -21.46
1809921.19 270632.52 -21.36
1809914.72 270637.23 -21.33
1809908.26 270641.94 -21.23
1809901.79 270646.64 -21.23
1809895.32 270651.35 -21.13
1809888.85 270656.06 -21.46
1809882.38 270660.77 -21.46
1809875.92 270665.48 -21.36
1809869.45 270670.18 -21.88
1809862.98 270674.89 -21.78
1809856.51 270679.60 -21.78
1809850.04 270684.31 -21.78
1809843.57 270689.01 -21.59
1809837.11 270693.72 -21.78
1809830.64 270698.43 -22.64
1809824.17 270703.14 -22.60
1809817.70 270707.85 -22.60
1809811.23 270712.55 -22.67
1809804.77 270717.26 -22.64
1809798.30 270721.97 -22.64
1809791.83 270726.68 -22.74
1809785.36 270731.39 -22.70
1809778.89 270736.09 -23.03
1809772.43 270740.80 -22.83
1809765.96 270745.51 -22.87
1809759.49 270750.22 -22.51
1809753.02 270754.93 -22.51
1809746.55 270759.63 -22.44
1809740.09 270764.34 -22.41
1809733.62 270769.05 -22.31
1809727.15 270773.76 -22.28
1809720.68 270778.47 -22.28
1809714.21 270783.17 -22.28
1809707.75 270787.88 -22.21
1809701.28 270792.59 -22.28
1809694.81 270797.30 -22.24
1809688.34 270802.01 -22.38
1809681.87 270806.71 -22.60
1809675.41 270811.42 -22.60
1809668.94 270816.13 -22.60
1809662.47 270820.84 -21.75
1809656.00 270825.54 -21.72
1809649.53 270830.25 -21.95
1809643.07 270834.96 -21.85
1809636.60 270839.67 -22.08
1809630.13 270844.38 -21.98
1809623.66 270849.08 -21.98
1809617.19 270853.79 -21.88
1809610.73 270858.50 -21.88
1809604.26 270863.21 -21.98
1809597.79 270867.92 -22.21
1809591.32 270872.62 -22.08
1809584.85 270877.33 -21.78
1809578.39 270882.04 -21.78
1809571.92 270886.75 -22.28
1809565.45 270891.46 -22.11
1809558.98 270896.16 -22.11
1809552.51 270900.87 -21.98
1809546.05 270905.58 -21.59
1809539.58 270910.29 -21.59
1809533.11 270915.00 -21.72
1809526.64 270919.70 -21.42
1809520.17 270924.41 -21.42
1809513.71 270929.12 -21.49
1809507.24 270933.83 -21.75
1809500.77 270938.54 -21.49
1809494.30 270943.24 -21.49
1809487.83 270947.95 -21.36
1809481.37 270952.66 -21.29
1809474.90 270957.37 -21.00
1809468.43 270962.07 -21.10
1809461.96 270966.78 -20.87
1813548.00 268002.55 -6.46
1813541.53 268007.26 -6.46
1813535.06 268011.96 -6.43
1813528.59 268016.67 -6.17
1813522.12 268021.38 -6.10
1813515.66 268026.09 -6.10
1813509.19 268030.80 -6.17
1813502.72 268035.50 -6.00
1813496.25 268040.21 -5.91
1813489.78 268044.92 -6.04
1813483.32 268049.63 -5.94
1813476.85 268054.34 -6.00
1813470.38 268059.04 -5.71
1813463.91 268063.75 -5.91
1813457.44 268068.46 -5.84
1813450.98 268073.17 -5.97
1813444.51 268077.87 -5.91
1813438.04 268082.58 -5.68
1813431.57 268087.29 -6.00
1813425.10 268092.00 -6.04
1813418.64 268096.71 -5.84
1813412.17 268101.41 -6.07
1813405.70 268106.12 -6.07
1813399.23 268110.83 -6.14
1813392.76 268115.54 -6.36
1813386.30 268120.25 -6.17
1813379.83 268124.95 -6.86
1813127.57 268308.56 -6.14
1813121.11 268313.27 -6.14
1813114.64 268317.98 -5.97
1813108.17 268322.69 -6.00
1813101.70 268327.40 -6.14
1813095.23 268332.10 -5.94
1813088.77 268336.81 -5.97
1813082.30 268341.52 -6.23
1813075.83 268346.23 -6.14
1813069.36 268350.93 -6.14
1813062.89 268355.64 -6.36
1813056.43 268360.35 -6.40
1813049.96 268365.06 -6.63
1813043.49 268369.77 -6.23
1813037.02 268374.47 -6.50
1813030.55 268379.18 -6.63
1813024.09 268383.89 -6.36
1813017.62 268388.60 -6.43
1813011.15 268393.31 -6.36
1813004.68 268398.01 -6.36
1812894.73 268478.05 -6.40
1812888.26 268482.76 -5.84
1812881.79 268487.46 -6.04
1812875.32 268492.17 -6.30
1812868.85 268496.88 -6.23
1812862.38 268501.59 -6.23
1812855.92 268506.30 -6.30
1812849.45 268511.00 -6.40
1812842.98 268515.71 -6.30
1812836.51 268520.42 -6.33
1812830.04 268525.13 -6.43
1812823.58 268529.84 -6.20
1812817.11 268534.54 -6.00
1812810.64 268539.25 -6.10
1811853.37 269236.03 -8.69
1811846.90 269240.73 -8.69
1811840.44 269245.44 -8.79
1811833.97 269250.15 -8.86
1811827.50 269254.86 -8.76
1811821.03 269259.56 -8.79
1811814.56 269264.27 -8.96
1811808.10 269268.98 -8.73
1811801.63 269273.69 -8.73
1811795.16 269278.40 -8.92
1811788.69 269283.10 -8.73
1811782.22 269287.81 -8.73
1811775.76 269292.52 -8.92
1811769.29 269297.23 -9.12
1811762.82 269301.94 -8.76
1811756.35 269306.64 -8.66
1811749.88 269311.35 -8.69
1811743.42 269316.06 -9.15
1811736.95 269320.77 -9.25
1811730.48 269325.48 -9.35
1811724.01 269330.18 -9.22
1811717.54 269334.89 -9.15
1811711.08 269339.60 -9.42
1811704.61 269344.31 -9.35
1811698.14 269349.02 -9.15
1811691.67 269353.72 -9.15
1811685.20 269358.43 -9.15
1811678.74 269363.14 -9.35
1811672.27 269367.85 -9.45
1811665.80 269372.56 -8.96
1811659.33 269377.26 -8.86
1811652.86 269381.97 -8.66
1811646.40 269386.68 -8.86
1811639.93 269391.39 -8.96
1811633.46 269396.09 -9.06
1811626.99 269400.80 -9.25
1811620.52 269405.51 -9.45
1811614.06 269410.22 -9.74
1811607.59 269414.93 -9.74
1811601.12 269419.63 -10.47
1811594.65 269424.34 -10.37
1811588.18 269429.05 -9.25
1811581.71 269433.76 -9.06
1811575.25 269438.47 -9.19
1811568.78 269443.17 -9.19
1811562.31 269447.88 -9.19
1811555.84 269452.59 -9.28
1811549.37 269457.30 -9.38
1811542.91 269462.01 -9.58
1811536.44 269466.71 -9.68
1811529.97 269471.42 -9.78
1811523.50 269476.13 -10.10
1811517.03 269480.84 -10.33
1811510.57 269485.55 -10.53
1811504.10 269490.25 -10.79
1811497.63 269494.96 -10.40
1811491.16 269499.67 -10.20
1811484.69 269504.38 -10.20
1811478.23 269509.09 -10.30
1811471.76 269513.79 -10.47
1811465.29 269518.50 -10.66
1811458.82 269523.21 -10.66
1811452.35 269527.92 -10.40
1811445.89 269532.62 -10.30
1811439.42 269537.33 -10.50
1811432.95 269542.04 -10.40
1811426.48 269546.75 -10.40
1811420.01 269551.46 -10.60
1811413.55 269556.16 -10.70
1811407.08 269560.87 -10.70
1811400.61 269565.58 -10.79
1811394.14 269570.29 -10.70
1811387.67 269575.00 -10.86
1811381.21 269579.70 -10.76
1811374.74 269584.41 -10.86
1811368.27 269589.12 -10.96
1811361.80 269593.83 -11.06
1811355.33 269598.54 -11.15
1811348.87 269603.24 -11.25
1811342.40 269607.95 -11.19
1811335.93 269612.66 -11.19
1811329.46 269617.37 -11.42
1811322.99 269622.08 -11.42
1811316.53 269626.78 -11.32
1811310.06 269631.49 -11.42
1811303.59 269636.20 -11.81
1811297.12 269640.91 -12.04
1811290.65 269645.62 -11.71
1811284.19 269650.32 -12.04
1811277.72 269655.03 -11.78
1811271.25 269659.74 -11.84
1811264.78 269664.45 -11.75
1811258.31 269669.15 -11.75
1811251.85 269673.86 -11.65
1811245.38 269678.57 -11.55
1811238.91 269683.28 -11.78
1811232.44 269687.99 -12.07
1811225.97 269692.69 -12.30
1811219.51 269697.40 -12.43
1811213.04 269702.11 -12.30
1811206.57 269706.82 -12.40
1811200.10 269711.53 -12.30
1811193.63 269716.23 -12.30
1811187.17 269720.94 -12.20
1811180.70 269725.65 -12.30
1811174.23 269730.36 -12.40
1811167.76 269735.07 -12.11
1811161.29 269739.77 -12.20
1811154.82 269744.48 -12.11
1811148.36 269749.19 -12.11
1811141.89 269753.90 -12.30
1811135.42 269758.61 -12.50
1811128.95 269763.31 -12.70
1811122.48 269768.02 -12.57
1811116.02 269772.73 -12.57
1811109.55 269777.44 -12.47
1811103.08 269782.14 -12.66
1811096.61 269786.85 -12.66
1811090.14 269791.56 -12.57
1811083.68 269796.27 -12.66
1811077.21 269800.98 -12.76
1811070.74 269805.68 -12.66
1811064.27 269810.39 -12.66
1811057.80 269815.10 -12.66
1811051.34 269819.81 -12.57
1811044.87 269824.52 -12.47
1811038.40 269829.22 -12.57
1811031.93 269833.93 -12.86
1811025.46 269838.64 -12.73
1811019.00 269843.35 -12.73
1811012.53 269848.06 -12.86
1811006.06 269852.76 -12.86
1810999.59 269857.47 -12.86
1810993.12 269862.18 -12.96
1810986.66 269866.89 -13.12
1810980.19 269871.60 -13.12
1810973.72 269876.30 -13.29
1810967.25 269881.01 -13.52
1810960.78 269885.72 -13.52
1810954.32 269890.43 -13.68
1810947.85 269895.14 -13.35
1810941.38 269899.84 -13.39
1810934.91 269904.55 -13.42
1810928.44 269909.26 -13.52
1810921.98 269913.97 -13.52
1810915.51 269918.67 -13.16
1810909.04 269923.38 -13.35
1810902.57 269928.09 -13.42
1810896.10 269932.80 -13.42
1810889.64 269937.51 -13.22
1810883.17 269942.21 -13.29
1810876.70 269946.92 -13.39
1810870.23 269951.63 -13.39
1810863.76 269956.34 -13.45
1810857.30 269961.05 -13.39
1810094.07 270516.58 -21.29
1810087.60 270521.29 -20.96
1810081.13 270526.00 -21.00
1810074.66 270530.71 -21.06
1810068.20 270535.41 -20.96
1810061.73 270540.12 -20.90
1810055.26 270544.83 -20.90
1810048.79 270549.54 -20.90
1810042.32 270554.25 -20.70
1810035.86 270558.95 -20.70
1810029.39 270563.66 -20.87
1810022.92 270568.37 -20.90
1810016.45 270573.08 -21.16
1810009.98 270577.78 -21.16
1810003.52 270582.49 -21.10
1809997.05 270587.20 -21.16
1809990.58 270591.91 -21.13
1809984.11 270596.62 -21.13
1809977.64 270601.32 -21.33
1809971.18 270606.03 -21.36
1809964.71 270610.74 -21.33
1809958.24 270615.45 -21.49
1809951.77 270620.16 -21.13
1809945.30 270624.86 -21.49
1809938.84 270629.57 -21.39
1809932.37 270634.28 -21.33
1809925.90 270638.99 -21.23
1809919.43 270643.70 -21.33
1809912.96 270648.40 -21.65
1809906.50 270653.11 -21.65
1809900.03 270657.82 -21.65
1809893.56 270662.53 -22.08
1809887.09 270667.24 -22.05
1809880.62 270671.94 -21.95
1809874.16 270676.65 -22.01
1809867.69 270681.36 -21.92
1809861.22 270686.07 -22.77
1809854.75 270690.78 -22.64
1809848.28 270695.48 -22.70
1809841.81 270700.19 -22.77
1809835.35 270704.90 -22.77
1809828.88 270709.61 -22.70
1809822.41 270714.31 -23.03
1809815.94 270719.02 -22.97
1809809.47 270723.73 -22.87
1809803.01 270728.44 -22.90
1809796.54 270733.15 -22.90
1809790.07 270737.85 -22.93
1809783.60 270742.56 -22.38
1809777.13 270747.27 -22.44
1809770.67 270751.98 -22.54
1809764.20 270756.69 -22.24
1809757.73 270761.39 -22.15
1809751.26 270766.10 -22.15
1809744.79 270770.81 -22.21
1809738.33 270775.52 -22.24
1809731.86 270780.23 -22.28
1809725.39 270784.93 -22.28
1809718.92 270789.64 -22.05
1809712.45 270794.35 -22.28
1809705.99 270799.06 -22.31
1809699.52 270803.77 -21.95
1809693.05 270808.47 -21.95
1809686.58 270813.18 -21.95
1809680.11 270817.89 -21.92
1809673.65 270822.60 -22.11
1809667.18 270827.31 -22.01
1809660.71 270832.01 -21.98
1809654.24 270836.72 -21.82
1809647.77 270841.43 -22.21
1809641.31 270846.14 -22.11
1809634.84 270850.84 -22.15
1809628.37 270855.55 -22.01
1809621.90 270860.26 -21.82
1809615.43 270864.97 -21.78
1809608.97 270869.68 -22.18
1809602.50 270874.38 -22.28
1809596.03 270879.09 -22.54
1809589.56 270883.80 -22.31
1809583.09 270888.51 -22.24
1809576.63 270893.22 -22.31
1809570.16 270897.92 -21.95
1809563.69 270902.63 -21.95
1809557.22 270907.34 -22.18
1809550.75 270912.05 -21.59
1809544.29 270916.76 -21.52
1809537.82 270921.46 -21.49
1809531.35 270926.17 -21.49
1809524.88 270930.88 -21.49
1809518.41 270935.59 -21.52
1809511.95 270940.30 -21.59
1809505.48 270945.00 -21.36
1809499.01 270949.71 -21.36
1809479.61 270963.83 -20.51
1809473.14 270968.54 -20.34
1809466.67 270973.25 -20.05
1809460.20 270977.96 -20.14
1813552.70 268009.02 -6.59
1813546.24 268013.72 -6.30
1813539.77 268018.43 -6.30
1813533.30 268023.14 -6.46
1813526.83 268027.85 -6.36
1813520.36 268032.56 -6.40
1813513.90 268037.26 -6.20
1813507.43 268041.97 -6.04
1813500.96 268046.68 -6.10
1813494.49 268051.39 -6.07
1813488.02 268056.10 -6.04
1813481.56 268060.80 -6.10
1813475.09 268065.51 -5.74
1813468.62 268070.22 -5.91
1813462.15 268074.93 -6.00
1813455.68 268079.64 -5.91
1813449.22 268084.34 -5.94
1813442.75 268089.05 -5.84
1813436.28 268093.76 -6.04
1813429.81 268098.47 -6.07
1813423.34 268103.17 -6.14
1813416.88 268107.88 -6.14
1813410.41 268112.59 -6.20
1813403.94 268117.30 -6.14
1813397.47 268122.01 -6.10
1813391.00 268126.71 -6.10
1813384.54 268131.42 -6.33
1813378.07 268136.13 -6.50
1813371.60 268140.84 -6.43
1813365.13 268145.55 -6.43
1813358.66 268150.25 -6.23
1813164.62 268291.49 -6.82
1813158.15 268296.20 -6.82
1813151.69 268300.91 -6.40
1813145.22 268305.62 -6.23
1813138.75 268310.32 -6.07
1813132.28 268315.03 -6.07
1813125.81 268319.74 -5.87
1813119.35 268324.45 -6.20
1813112.88 268329.16 -5.91
1813106.41 268333.86 -6.10
1813099.94 268338.57 -6.23
1813093.47 268343.28 -6.14
1813087.01 268347.99 -6.14
1813080.54 268352.69 -6.14
1813074.07 268357.40 -6.23
1813067.60 268362.11 -6.33
1813061.13 268366.82 -6.40
1813054.67 268371.53 -6.63
1813048.20 268376.23 -6.33
1813041.73 268380.94 -6.43
1813035.26 268385.65 -6.36
1813028.79 268390.36 -6.14
1813022.33 268395.07 -6.14
1813015.86 268399.77 -6.23
1813009.39 268404.48 -6.04
1812944.71 268451.56 -5.97
1812938.24 268456.27 -5.97
1812931.77 268460.98 -6.07
1812925.31 268465.69 -5.87
1812918.84 268470.39 -6.17
1812912.37 268475.10 -5.87
1812905.90 268479.81 -6.14
1812899.43 268484.52 -5.84
1812892.96 268489.22 -5.84
1812886.50 268493.93 -6.04
1812880.03 268498.64 -6.04
1812873.56 268503.35 -6.07
1812867.09 268508.06 -6.07
1812860.62 268512.76 -6.17
1812854.16 268517.47 -6.30
1812847.69 268522.18 -6.10
1812841.22 268526.89 -6.30
1812834.75 268531.60 -6.46
1812828.28 268536.30 -6.00
1812821.82 268541.01 -5.91
1812815.35 268545.72 -5.97
1812808.88 268550.43 -6.10
1812802.41 268555.14 -6.20
1812795.94 268559.84 -6.04
1812789.48 268564.55 -6.23
1812783.01 268569.26 -6.04
1812776.54 268573.97 -6.33
1812770.07 268578.68 -6.40
1812763.60 268583.38 -6.56
1812757.14 268588.09 -6.59
1812750.67 268592.80 -6.69
1812330.25 268898.81 -7.64
1812323.78 268903.52 -7.35
1812317.31 268908.23 -7.38
1812310.84 268912.94 -7.38
1812304.37 268917.65 -7.68
1812297.91 268922.35 -7.48
1812291.44 268927.06 -7.55
1812284.97 268931.77 -7.35
1812278.50 268936.48 -7.35
1812272.03 268941.19 -7.38
1812265.57 268945.89 -7.28
1812259.10 268950.60 -7.35
1812252.63 268955.31 -7.35
1812246.16 268960.02 -7.35
1812239.69 268964.73 -7.74
1812233.23 268969.43 -7.32
1812226.76 268974.14 -7.48
1812220.29 268978.85 -7.32
1812213.82 268983.56 -7.55
1812207.35 268988.27 -7.84
1812200.89 268992.97 -7.78
1812194.42 268997.68 -7.81
1812187.95 269002.39 -7.91
1812181.48 269007.10 -7.97
1812175.01 269011.80 -7.97
1812168.55 269016.51 -7.51
1812162.08 269021.22 -7.71
1812155.61 269025.93 -7.78
1811903.36 269209.54 -8.89
1811896.89 269214.25 -8.69
1811890.42 269218.95 -8.50
1811883.95 269223.66 -8.69
1811877.48 269228.37 -8.76
1811871.02 269233.08 -8.86
1811864.55 269237.79 -8.92
1811858.08 269242.49 -8.60
1811851.61 269247.20 -8.53
1811845.14 269251.91 -8.63
1811838.68 269256.62 -8.69
1811832.21 269261.33 -8.69
1811825.74 269266.03 -8.73
1811819.27 269270.74 -9.12
1811812.80 269275.45 -8.92
1811806.34 269280.16 -8.92
1811799.87 269284.86 -8.86
1811793.40 269289.57 -8.99
1811786.93 269294.28 -9.12
1811780.46 269298.99 -8.76
1811774.00 269303.70 -8.76
1811767.53 269308.40 -8.83
1811761.06 269313.11 -8.86
1811754.59 269317.82 -8.86
1811748.12 269322.53 -9.15
1811741.66 269327.24 -9.15
1811735.19 269331.94 -8.96
1811728.72 269336.65 -8.96
1811722.25 269341.36 -9.35
1811715.78 269346.07 -9.45
1811709.32 269350.78 -9.35
1811702.85 269355.48 -9.25
1811696.38 269360.19 -9.06
1811689.91 269364.90 -9.25
1811683.44 269369.61 -9.25
1811676.98 269374.32 -9.35
1811670.51 269379.02 -9.06
1811664.04 269383.73 -9.15
1811657.57 269388.44 -8.96
