1816453.05 264823.74 -9.84
1816448.38 264830.24 -9.88
1816443.71 264836.73 -9.81
1816439.04 264843.22 -9.97
1816434.36 264849.72 -9.78
1816429.69 264856.21 -10.01
1816425.02 264862.70 -10.14
1816420.34 264869.20 -10.14
1816415.67 264875.69 -10.24
1816411.00 264882.18 -10.24
1816406.33 264888.68 -10.30
1816401.65 264895.17 -10.40
1816396.98 264901.66 -10.63
1816392.31 264908.16 -10.50
1816387.63 264914.65 -10.43
1816382.96 264921.14 -10.96
1816378.29 264927.64 -10.76
1816373.62 264934.13 -11.02
1816368.94 264940.62 -10.50
1816364.27 264947.12 -10.47
1816359.60 264953.61 -10.63
1816354.92 264960.11 -10.43
1816350.25 264966.60 -10.60
1816345.58 264973.09 -10.50
1816340.91 264979.59 -10.99
1816336.23 264986.08 -10.76
1816331.56 264992.57 -10.79
1816326.89 264999.07 -10.50
1816322.21 265005.56 -10.63
1816317.54 265012.05 -10.53
1816312.87 265018.55 -10.53
1816308.20 265025.04 -10.76
1816303.52 265031.53 -10.66
1816298.85 265038.03 -10.93
1816294.18 265044.52 -10.83
1816289.50 265051.01 -11.15
1816284.83 265057.51 -10.86
1816280.16 265064.00 -10.99
1816275.49 265070.49 -11.09
1816270.81 265076.99 -11.22
1816266.14 265083.48 -11.22
1816261.47 265089.97 -11.48
1816256.79 265096.47 -11.22
1816247.45 265109.45 -11.75
1816242.78 265115.95 -11.68
1816238.10 265122.44 -11.52
1816233.43 265128.93 -11.22
1816228.76 265135.43 -11.15
1816224.08 265141.92 -11.45
1816219.41 265148.41 -11.52
1816214.74 265154.91 -11.06
1816210.07 265161.40 -11.06
1816205.39 265167.89 -11.02
1816200.72 265174.39 -10.93
1816196.05 265180.88 -11.09
1816191.37 265187.37 -11.12
1816186.70 265193.87 -11.19
1816182.03 265200.36 -11.29
1816177.35 265206.85 -11.22
1816172.68 265213.35 -11.42
1816168.01 265219.84 -11.42
1816163.34 265226.33 -11.42
1816158.66 265232.83 -11.38
1816153.99 265239.32 -11.42
1816149.32 265245.82 -11.45
1816144.64 265252.31 -11.65
1816139.97 265258.80 -11.55
1816135.30 265265.30 -11.65
1816130.63 265271.79 -11.68
1816125.95 265278.28 -11.58
1816121.28 265284.78 -11.65
1816116.61 265291.27 -11.78
1816111.93 265297.76 -11.88
1816107.26 265304.26 -11.91
1816102.59 265310.75 -11.91
1816097.92 265317.24 -11.78
1816093.24 265323.74 -11.78
1816088.57 265330.23 -11.98
1816083.90 265336.72 -11.75
1816079.22 265343.22 -11.84
1816074.55 265349.71 -11.98
1816069.88 265356.20 -11.68
1816065.21 265362.70 -11.61
1816060.53 265369.19 -11.58
1816055.86 265375.68 -11.84
1816051.19 265382.18 -11.61
1816046.51 265388.67 -11.81
1816041.84 265395.16 -11.81
1816037.17 265401.66 -11.81
1816032.50 265408.15 -11.94
1816027.82 265414.64 -11.98
1816023.15 265421.14 -12.01
1816018.48 265427.63 -12.01
1816013.80 265434.12 -12.01
1816009.13 265440.62 -11.94
1816004.46 265447.11 -12.27
1815999.79 265453.60 -12.20
1815995.11 265460.10 -11.94
1815990.44 265466.59 -11.94
1815985.77 265473.08 -12.17
1815981.09 265479.58 -12.24
1815976.42 265486.07 -12.50
1815971.75 265492.56 -12.40
1815967.08 265499.06 -12.53
1815962.40 265505.55 -12.24
1815957.73 265512.04 -12.34
1815953.06 265518.54 -12.57
1815948.38 265525.03 -12.53
1815943.71 265531.53 -12.60
1815939.04 265538.02 -12.60
1815934.37 265544.51 -12.53
1815929.69 265551.01 -12.50
1815925.02 265557.50 -12.17
1815920.35 265563.99 -12.01
1815915.67 265570.49 -12.24
1815911.00 265576.98 -12.34
1815906.33 265583.47 -12.37
1815901.66 265589.97 -12.60
1815896.98 265596.46 -12.40
1815892.31 265602.95 -12.43
1815887.64 265609.45 -12.57
1815882.96 265615.94 -12.57
1815878.29 265622.43 -12.37
1815873.62 265628.93 -12.27
1815868.95 265635.42 -12.27
1815864.27 265641.91 -12.27
1815859.60 265648.41 -12.17
1815854.93 265654.90 -12.27
1815850.25 265661.39 -12.27
1815845.58 265667.89 -12.27
1815840.91 265674.38 -12.27
1815836.24 265680.87 -12.27
1815831.56 265687.37 -12.27
1815826.89 265693.86 -12.47
1815822.22 265700.35 -12.60
1815817.54 265706.85 -12.50
1815812.87 265713.34 -12.53
1815808.20 265719.83 -12.63
1815803.53 265726.33 -12.27
1815798.85 265732.82 -12.47
1815794.18 265739.31 -12.57
1815789.51 265745.81 -12.66
1815784.83 265752.30 -12.76
1815780.16 265758.79 -12.86
1815775.49 265765.29 -12.73
1815770.82 265771.78 -12.73
1815766.14 265778.27 -12.70
1815761.47 265784.77 -12.60
1815756.80 265791.26 -12.60
1815752.12 265797.75 -12.57
1815747.45 265804.25 -12.40
1815742.78 265810.74 -12.47
1815738.11 265817.23 -12.43
1815733.43 265823.73 -12.34
1815728.76 265830.22 -12.34
1815724.09 265836.72 -12.53
1815719.41 265843.21 -12.43
1815714.74 265849.70 -12.60
1815710.07 265856.20 -12.57
1815705.40 265862.69 -12.53
1815700.72 265869.18 -12.43
1815696.05 265875.68 -12.53
1815691.38 265882.17 -12.20
1815686.70 265888.66 -12.30
1815682.03 265895.16 -12.66
1815677.36 265901.65 -12.37
1815672.69 265908.14 -12.37
1815668.01 265914.64 -12.43
1815663.34 265921.13 -12.43
1815658.67 265927.62 -12.34
1815653.99 265934.12 -12.53
1815649.32 265940.61 -12.43
1815644.65 265947.10 -12.47
1815639.98 265953.60 -12.66
1815635.30 265960.09 -12.60
1815630.63 265966.58 -12.47
1815625.96 265973.08 -12.50
1815621.28 265979.57 -12.60
1815616.61 265986.06 -12.43
1815611.94 265992.56 -12.53
1815607.27 265999.05 -12.43
1815602.59 266005.54 -12.43
1815597.92 266012.04 -12.43
1815593.25 266018.53 -12.53
1815588.57 266025.02 -12.66
1815583.90 266031.52 -12.73
1815579.23 266038.01 -12.73
1815574.56 266044.50 -12.73
1815569.88 266051.00 -12.73
1815565.21 266057.49 -12.83
1815560.54 266063.98 -12.83
1815555.86 266070.48 -12.66
1815551.19 266076.97 -12.66
1815546.52 266083.46 -12.76
1815541.85 266089.96 -12.66
1815537.17 266096.45 -12.76
1815532.50 266102.94 -12.47
1815527.83 266109.44 -12.50
1815523.15 266115.93 -12.66
1815518.48 266122.43 -12.66
1815513.81 266128.92 -12.53
1815509.14 266135.41 -12.63
1815504.46 266141.91 -12.50
1815499.79 266148.40 -12.53
1815495.12 266154.89 -12.43
1815490.44 266161.39 -12.53
1815485.77 266167.88 -12.53
1815481.10 266174.37 -12.50
1815476.43 266180.87 -12.40
1815471.75 266187.36 -12.40
1815467.08 266193.85 -12.20
1815462.41 266200.35 -12.20
1815457.73 266206.84 -12.30
1815453.06 266213.33 -12.40
1815448.39 266219.83 -12.17
1815443.72 266226.32 -12.17
1815439.04 266232.81 -12.20
1815434.37 266239.31 -12.30
1815429.70 266245.80 -12.17
1815425.02 266252.29 -12.07
1815420.35 266258.79 -12.17
1815415.68 266265.28 -12.27
1815411.01 266271.77 -12.17
1815406.33 266278.27 -12.04
1815401.66 266284.76 -12.04
1815396.99 266291.25 -12.04
1815392.31 266297.75 -11.91
1815387.64 266304.24 -12.04
1815382.97 266310.73 -11.84
1815378.30 266317.23 -11.84
1815373.62 266323.72 -11.84
1815368.95 266330.21 -11.75
1815364.28 266336.71 -11.75
1815359.60 266343.20 -11.78
1815354.93 266349.69 -11.78
1815350.26 266356.19 -11.48
1815345.59 266362.68 -11.78
1815340.91 266369.17 -11.68
1815336.24 266375.67 -11.78
1815331.57 266382.16 -11.84
1815326.89 266388.65 -11.75
1815322.22 266395.15 -11.65
1815317.55 266401.64 -11.81
1815312.88 266408.14 -11.71
1815308.20 266414.63 -11.68
1815303.53 266421.12 -11.88
1815298.86 266427.62 -11.84
1815294.18 266434.11 -11.88
1815289.51 266440.60 -11.78
1815284.84 266447.10 -11.84
1815280.17 266453.59 -11.58
1815275.49 266460.08 -11.52
1815270.82 266466.58 -11.52
1815266.15 266473.07 -11.45
1815261.47 266479.56 -11.45
1815256.80 266486.06 -11.35
1815252.13 266492.55 -11.35
1815247.46 266499.04 -11.45
1815242.78 266505.54 -11.45
1815238.11 266512.03 -11.55
1815233.44 266518.52 -11.61
1815228.76 266525.02 -11.58
1815224.09 266531.51 -11.58
1815219.42 266538.00 -11.52
1815214.74 266544.50 -11.52
1815210.07 266550.99 -11.52
1815205.40 266557.48 -11.52
1815200.73 266563.98 -11.52
1815196.05 266570.47 -11.52
1815191.38 266576.96 -11.52
1815186.71 266583.46 -11.52
1815182.03 266589.95 -11.58
1815177.36 266596.44 -11.61
1815172.69 266602.94 -11.68
1815168.02 266609.43 -11.65
1815163.34 266615.92 -11.75
1815158.67 266622.42 -11.78
1815154.00 266628.91 -11.78
1815149.32 266635.40 -11.75
1815144.65 266641.90 -11.78
1815139.98 266648.39 -11.75
1815135.31 266654.88 -11.75
1815130.63 266661.38 -11.78
1815125.96 266667.87 -11.71
1815121.29 266674.36 -11.71
1815116.61 266680.86 -11.75
1815111.94 266687.35 -11.68
1815107.27 266693.84 -11.68
1815102.60 266700.34 -11.75
1815097.92 266706.83 -11.75
1815093.25 266713.33 -11.75
1815088.58 266719.82 -11.71
1815083.90 266726.31 -11.58
1815079.23 266732.81 -11.58
1815074.56 266739.30 -11.55
1815069.89 266745.79 -11.58
1815065.21 266752.29 -11.55
1815060.54 266758.78 -11.55
1815055.87 266765.27 -11.48
1815051.19 266771.77 -11.48
1815046.52 266778.26 -11.48
1815041.85 266784.75 -11.45
1815037.18 266791.25 -11.42
1815032.50 266797.74 -11.42
1815027.83 266804.23 -11.42
1815023.16 266810.73 -11.48
1815018.48 266817.22 -11.45
1815013.81 266823.71 -11.48
1815009.14 266830.21 -11.45
1815004.47 266836.70 -11.45
1814999.79 266843.19 -11.45
1814995.12 266849.69 -11.45
1814990.45 266856.18 -11.42
1814985.77 266862.67 -11.45
1814981.10 266869.17 -11.48
1814976.43 266875.66 -11.52
1814971.76 266882.15 -11.52
1814967.08 266888.65 -11.52
1814962.41 266895.14 -11.52
1814957.74 266901.63 -11.42
1814953.06 266908.13 -11.42
1814948.39 266914.62 -11.42
1814943.72 266921.11 -11.42
1814939.05 266927.61 -11.42
1814934.37 266934.10 -11.42
1814929.70 266940.59 -11.32
1814925.03 266947.09 -11.32
1814920.35 266953.58 -11.42
1814915.68 266960.07 -11.32
1814911.01 266966.57 -11.32
1814906.34 266973.06 -11.32
1814901.66 266979.55 -11.38
1814896.99 266986.05 -11.38
1814892.32 266992.54 -11.38
1814887.64 266999.04 -11.38
1814882.97 267005.53 -11.38
1814878.30 267012.02 -11.38
1814873.63 267018.52 -11.38
1814868.95 267025.01 -11.38
1814864.28 267031.50 -11.38
1814859.61 267038.00 -11.38
1814854.93 267044.49 -11.38
1814850.26 267050.98 -11.48
1814845.59 267057.48 -11.65
1814840.92 267063.97 -11.65
1814836.24 267070.46 -11.65
1814831.57 267076.96 -11.61
1814826.90 267083.45 -11.58
1814822.22 267089.94 -11.58
1814817.55 267096.44 -11.48
1814812.88 267102.93 -11.52
1814808.21 267109.42 -11.45
1814803.53 267115.92 -11.45
1814798.86 267122.41 -11.58
1814794.19 267128.90 -11.58
1814789.51 267135.40 -11.75
1814784.84 267141.89 -11.75
1814780.17 267148.38 -12.04
1814775.50 267154.88 -11.94
1814770.82 267161.37 -11.94
1814766.15 267167.86 -12.04
1814761.48 267174.36 -12.20
1814756.80 267180.85 -12.20
1814752.13 267187.34 -12.20
1814747.46 267193.84 -12.17
1814742.79 267200.33 -12.07
1814738.11 267206.82 -12.17
1814733.44 267213.32 -12.17
1814728.77 267219.81 -12.17
1814724.09 267226.30 -12.07
1814719.42 267232.80 -11.91
1814714.75 267239.29 -11.91
1814710.08 267245.78 -11.91
1814705.40 267252.28 -11.84
1814700.73 267258.77 -11.81
1814696.06 267265.26 -11.84
1814691.38 267271.76 -11.91
1814686.71 267278.25 -11.91
1814682.04 267284.75 -11.91
1814677.37 267291.24 -11.84
1814672.69 267297.73 -11.88
1814668.02 267304.23 -11.88
1814663.35 267310.72 -11.88
1814658.67 267317.21 -11.61
1814654.00 267323.71 -11.61
1814649.33 267330.20 -11.61
1814644.66 267336.69 -11.61
1814639.98 267343.19 -11.65
1814635.31 267349.68 -11.71
1814630.64 267356.17 -11.65
1814625.96 267362.67 -11.65
1814621.29 267369.16 -11.65
1814616.62 267375.65 -11.65
1814611.95 267382.15 -11.68
1814607.27 267388.64 -11.68
1814602.60 267395.13 -11.68
1814597.93 267401.63 -11.78
1814593.25 267408.12 -11.68
1814588.58 267414.61 -11.91
1814583.91 267421.11 -11.91
1814579.24 267427.60 -11.94
1814574.56 267434.09 -11.94
1814569.89 267440.59 -11.84
1814565.22 267447.08 -11.78
1814560.54 267453.57 -11.91
1814555.87 267460.07 -11.81
1814551.20 267466.56 -11.81
1814546.53 267473.05 -11.78
1814541.85 267479.55 -11.88
1814537.18 267486.04 -11.78
1814532.51 267492.53 -12.14
1814527.83 267499.03 -11.71
1814523.16 267505.52 -11.91
1814518.49 267512.01 -12.17
1814513.82 267518.51 -12.27
1814509.14 267525.00 -11.98
1814504.47 267531.49 -11.94
1814499.80 267537.99 -11.84
1814495.12 267544.48 -11.98
1814490.45 267550.97 -12.04
1814485.78 267557.47 -12.01
1814481.11 267563.96 -11.94
1814476.43 267570.45 -11.98
1814471.76 267576.95 -11.88
1814467.09 267583.44 -11.88
1814462.41 267589.94 -11.81
1814457.74 267596.43 -12.01
1814453.07 267602.92 -11.91
1814448.40 267609.42 -12.07
1814443.72 267615.91 -12.27
1814439.05 267622.40 -12.04
1814434.38 267628.90 -12.27
1814429.70 267635.39 -12.34
1814425.03 267641.88 -12.24
1814420.36 267648.38 -12.24
1814415.69 267654.87 -12.11
1814411.01 267661.36 -11.98
1814406.34 267667.86 -12.37
1814401.67 267674.35 -12.27
1814396.99 267680.84 -12.37
1814392.32 267687.34 -12.30
1814387.65 267693.83 -12.30
1814382.98 267700.32 -12.30
1814378.30 267706.82 -12.30
1814373.63 267713.31 -12.73
1814368.96 267719.80 -12.93
1814364.28 267726.30 -12.53
1814359.61 267732.79 -12.73
1814354.94 267739.28 -12.70
1814350.27 267745.78 -12.80
1814345.59 267752.27 -12.70
1814340.92 267758.76 -12.73
1814336.25 267765.26 -12.76
1814331.57 267771.75 -12.76
1814326.90 267778.24 -13.06
1814322.23 267784.74 -12.93
1814317.56 267791.23 -13.25
1814312.88 267797.72 -13.06
1814308.21 267804.22 -13.22
1814303.54 267810.71 -13.02
1814298.86 267817.20 -13.02
1814294.19 267823.70 -13.29
1814289.52 267830.19 -13.22
1814284.85 267836.68 -13.09
1814280.17 267843.18 -13.19
1814275.50 267849.67 -13.16
1814270.83 267856.16 -13.16
1814266.15 267862.66 -12.86
1814261.48 267869.15 -13.22
1814256.81 267875.65 -13.12
1814252.13 267882.14 -12.93
1814247.46 267888.63 -13.02
1814242.79 267895.13 -13.19
1814238.12 267901.62 -12.96
1814233.44 267908.11 -12.89
1814228.77 267914.61 -13.06
1814224.10 267921.10 -13.25
1814219.42 267927.59 -13.25
1814214.75 267934.09 -13.12
1814210.08 267940.58 -13.22
1814205.41 267947.07 -13.12
1814200.73 267953.57 -13.12
1814196.06 267960.06 -13.25
1814191.39 267966.55 -13.35
1814186.71 267973.05 -13.06
1814182.04 267979.54 -13.42
1814177.37 267986.03 -13.62
1814172.70 267992.53 -13.62
1814168.02 267999.02 -13.75
1814163.35 268005.51 -13.78
1814158.68 268012.01 -13.68
1814154.00 268018.50 -13.75
1814149.33 268024.99 -13.91
1814144.66 268031.49 -13.78
1814139.99 268037.98 -14.01
1814135.31 268044.47 -14.24
1814130.64 268050.97 -14.24
1814125.97 268057.46 -14.57
1814121.29 268063.95 -14.17
1814116.62 268070.45 -14.27
1814111.95 268076.94 -14.27
1814107.28 268083.43 -14.17
1814102.60 268089.93 -14.24
1814097.93 268096.42 -14.24
1814093.26 268102.91 -14.24
1814088.58 268109.41 -14.44
1814083.91 268115.90 -14.30
1814079.24 268122.39 -14.40
1814074.57 268128.89 -14.27
1814069.89 268135.38 -14.17
1814065.22 268141.87 -14.30
1814060.55 268148.37 -14.30
1814055.87 268154.86 -14.07
1814051.20 268161.36 -14.40
1814046.53 268167.85 -14.30
1814041.86 268174.34 -14.30
1814037.18 268180.84 -14.40
1814032.51 268187.33 -14.50
1814027.84 268193.82 -14.50
1814023.16 268200.32 -14.40
1814018.49 268206.81 -14.50
1814013.82 268213.30 -14.40
1814009.15 268219.80 -14.40
1814004.47 268226.29 -14.40
1813999.80 268232.78 -14.83
1813995.13 268239.28 -15.03
1813990.45 268245.77 -14.89
1813985.78 268252.26 -14.86
1813981.11 268258.76 -14.76
1813976.44 268265.25 -14.86
1813971.76 268271.74 -14.70
1813967.09 268278.24 -14.73
1813962.42 268284.73 -14.93
1813957.74 268291.22 -14.93
1813953.07 268297.72 -14.96
1813948.40 268304.21 -14.93
1813943.73 268310.70 -14.93
1813939.05 268317.20 -14.83
1813934.38 268323.69 -15.16
1813929.71 268330.18 -15.16
1813925.03 268336.68 -15.22
1813920.36 268343.17 -15.03
1813915.69 268349.66 -15.06
1813911.02 268356.16 -15.26
1813906.34 268362.65 -15.75
1813901.67 268369.14 -15.72
1813897.00 268375.64 -15.55
1813892.32 268382.13 -15.72
1813887.65 268388.62 -15.49
1813882.98 268395.12 -15.62
1813878.31 268401.61 -15.45
1813873.63 268408.10 -15.65
1813868.96 268414.60 -16.04
1813864.29 268421.09 -15.94
1813859.61 268427.58 -15.62
1813854.94 268434.08 -15.62
1813850.27 268440.57 -15.94
1813845.60 268447.07 -15.65
1813840.92 268453.56 -15.88
1813836.25 268460.05 -16.11
1813831.58 268466.55 -15.68
1813826.90 268473.04 -15.58
1813822.23 268479.53 -16.21
1813817.56 268486.03 -16.08
1813812.89 268492.52 -16.21
1813808.21 268499.01 -16.40
1813803.54 268505.51 -16.60
1813798.87 268512.00 -16.54
1813794.19 268518.49 -16.01
1813789.52 268524.99 -16.01
1813784.85 268531.48 -16.21
1813780.18 268537.97 -16.21
1813775.50 268544.47 -16.11
1813770.83 268550.96 -16.11
1813766.16 268557.45 -16.11
1813761.48 268563.95 -16.11
1813756.81 268570.44 -16.11
1813752.14 268576.93 -16.21
1813747.47 268583.43 -16.21
1813742.79 268589.92 -16.63
1813738.12 268596.41 -16.50
1813733.45 268602.91 -16.50
1813728.77 268609.40 -16.60
1813724.10 268615.89 -16.50
1813719.43 268622.39 -16.50
1813714.76 268628.88 -16.83
1813710.08 268635.37 -16.93
1813705.41 268641.87 -16.93
1813700.74 268648.36 -16.83
1813696.06 268654.85 -17.03
1813691.39 268661.35 -17.03
1813686.72 268667.84 -17.32
1816571.70 264672.57 -10.66
1816567.02 264679.07 -10.04
1816562.35 264685.56 -10.14
1816557.68 264692.05 -10.30
1816553.00 264698.55 -10.30
1816548.33 264705.04 -9.88
1816543.66 264711.54 -9.97
1816538.99 264718.03 -9.97
1816534.31 264724.52 -9.88
1816529.64 264731.02 -10.07
1816524.97 264737.51 -9.68
1816520.29 264744.00 -9.68
1816515.62 264750.50 -9.74
1816510.95 264756.99 -9.94
1816506.28 264763.48 -9.65
1816501.60 264769.98 -9.94
1816496.93 264776.47 -10.04
1816492.26 264782.96 -9.78
1816487.58 264789.46 -9.88
1816482.91 264795.95 -10.10
1816473.57 264808.94 -9.97
1816468.89 264815.43 -9.91
1816464.22 264821.92 -9.91
1816459.55 264828.42 -9.97
1816454.87 264834.91 -9.71
1816450.20 264841.40 -9.71
1816445.53 264847.90 -9.81
1816440.86 264854.39 -9.81
1816436.18 264860.88 -10.01
1816431.51 264867.38 -9.91
1816426.84 264873.87 -10.04
1816422.16 264880.36 -10.04
1816417.49 264886.86 -10.04
1816412.82 264893.35 -10.20
1816408.15 264899.84 -10.20
1816403.47 264906.34 -10.50
1816398.80 264912.83 -10.30
1816394.13 264919.32 -10.37
1816389.45 264925.82 -10.50
1816384.78 264932.31 -10.40
1816380.11 264938.80 -10.43
1816375.44 264945.30 -10.83
1816370.76 264951.79 -10.63
1816366.09 264958.28 -10.63
1816361.42 264964.78 -10.43
1816356.74 264971.27 -10.63
1816352.07 264977.76 -10.53
1816347.40 264984.26 -10.56
1816342.73 264990.75 -10.63
1816338.05 264997.25 -10.53
1816333.38 265003.74 -10.66
1816328.71 265010.23 -10.70
1816324.03 265016.73 -10.40
1816319.36 265023.22 -10.40
1816314.69 265029.71 -10.43
1816310.02 265036.21 -10.73
1816305.34 265042.70 -10.66
1816300.67 265049.19 -10.66
1816296.00 265055.69 -11.02
1816291.32 265062.18 -10.93
1816286.65 265068.67 -10.96
1816281.98 265075.17 -10.86
1816277.31 265081.66 -10.79
1816272.63 265088.15 -10.89
1816267.96 265094.65 -11.22
1816263.29 265101.14 -11.22
1816258.61 265107.63 -11.45
1816253.94 265114.13 -11.45
1816244.60 265127.11 -11.75
1816239.92 265133.61 -11.38
1816235.25 265140.10 -11.22
1816230.58 265146.59 -11.32
1816225.90 265153.09 -11.25
1816221.23 265159.58 -11.19
1816216.56 265166.07 -11.45
1816211.89 265172.57 -11.06
1816207.21 265179.06 -11.06
1816202.54 265185.55 -11.06
1816197.87 265192.05 -11.22
1816193.19 265198.54 -11.22
1816188.52 265205.03 -11.19
1816183.85 265211.53 -11.19
1816179.18 265218.02 -11.25
1816174.50 265224.51 -11.19
1816169.83 265231.01 -11.38
1816165.16 265237.50 -11.38
1816160.48 265243.99 -11.58
1816155.81 265250.49 -11.35
1816151.14 265256.98 -11.38
1816146.47 265263.47 -11.42
1816141.79 265269.97 -11.52
1816137.12 265276.46 -11.35
1816132.45 265282.96 -11.65
1816127.77 265289.45 -11.55
1816123.10 265295.94 -11.65
1816118.43 265302.44 -11.48
1816113.76 265308.93 -11.48
1816109.08 265315.42 -11.88
1816104.41 265321.92 -11.78
1816099.74 265328.41 -11.88
1816095.06 265334.90 -11.71
1816090.39 265341.40 -11.75
1816085.72 265347.89 -11.84
1816081.05 265354.38 -11.71
1816076.37 265360.88 -11.68
1816071.70 265367.37 -11.75
1816067.03 265373.86 -11.81
1816062.35 265380.36 -11.58
1816057.68 265386.85 -11.58
1816053.01 265393.34 -11.61
1816048.34 265399.84 -11.71
1816043.66 265406.33 -11.81
1816038.99 265412.82 -11.98
1816034.32 265419.32 -11.84
1816029.64 265425.81 -11.98
1816024.97 265432.30 -11.88
1816020.30 265438.80 -11.88
1816015.63 265445.29 -11.91
1816010.95 265451.78 -12.14
1816006.28 265458.28 -12.01
1816001.61 265464.77 -11.81
1815996.93 265471.26 -12.01
1815992.26 265477.76 -12.17
1815987.59 265484.25 -12.20
1815982.92 265490.74 -12.07
1815978.24 265497.24 -12.53
1815973.57 265503.73 -12.20
1815968.90 265510.22 -12.17
1815964.22 265516.72 -12.30
1815959.55 265523.21 -12.53
1815954.88 265529.70 -12.27
1815950.21 265536.20 -12.37
1815945.53 265542.69 -12.47
1815940.86 265549.18 -12.47
1815936.19 265555.68 -12.24
1815931.51 265562.17 -12.24
1815926.84 265568.66 -12.34
1815922.17 265575.16 -12.34
1815917.50 265581.65 -12.43
1815912.82 265588.15 -12.53
1815908.15 265594.64 -12.37
1815903.48 265601.13 -12.43
1815898.80 265607.63 -12.43
1815894.13 265614.12 -12.34
1815889.46 265620.61 -12.47
1815884.79 265627.11 -12.47
1815880.11 265633.60 -12.34
1815875.44 265640.09 -12.43
1815870.77 265646.59 -12.40
1815866.09 265653.08 -12.24
1815861.42 265659.57 -12.27
1815856.75 265666.07 -12.27
1815852.08 265672.56 -12.27
1815847.40 265679.05 -12.37
1815842.73 265685.55 -12.37
1815838.06 265692.04 -12.37
1815833.38 265698.53 -12.37
1815828.71 265705.03 -12.37
1815824.04 265711.52 -12.37
1815819.36 265718.01 -12.40
1815814.69 265724.51 -12.60
1815810.02 265731.00 -12.50
1815805.35 265737.49 -12.60
1815800.67 265743.99 -12.63
1815796.00 265750.48 -12.63
1815791.33 265756.97 -12.57
1815786.65 265763.47 -12.66
1815781.98 265769.96 -12.50
1815777.31 265776.45 -12.50
1815772.64 265782.95 -12.89
1815767.96 265789.44 -12.76
1815763.29 265795.93 -12.86
1815758.62 265802.43 -12.86
1815753.94 265808.92 -12.76
1815749.27 265815.41 -12.76
1815744.60 265821.91 -12.76
1815739.93 265828.40 -12.50
1815735.25 265834.89 -12.60
1815730.58 265841.39 -12.50
1815725.91 265847.88 -12.57
1815721.23 265854.37 -12.50
1815716.56 265860.87 -12.50
1815711.89 265867.36 -12.40
1815707.22 265873.86 -12.73
1815702.54 265880.35 -12.50
1815697.87 265886.84 -12.66
1815693.20 265893.34 -12.86
1815688.52 265899.83 -12.50
1815683.85 265906.32 -12.40
1815679.18 265912.82 -12.53
1815674.51 265919.31 -12.50
1815669.83 265925.80 -12.30
1815665.16 265932.30 -12.47
1815660.49 265938.79 -12.47
1815655.81 265945.28 -12.43
1815651.14 265951.78 -12.30
1815646.47 265958.27 -12.53
1815641.80 265964.76 -12.50
1815637.12 265971.26 -12.40
1815632.45 265977.75 -12.50
1815627.78 265984.24 -12.57
1815623.10 265990.74 -12.66
1815618.43 265997.23 -12.66
1815613.76 266003.72 -12.50
1815609.09 266010.22 -12.70
1815604.41 266016.71 -12.70
1815599.74 266023.20 -12.60
1815595.07 266029.70 -12.50
1815590.39 266036.19 -12.40
1815585.72 266042.68 -12.60
1815581.05 266049.18 -12.63
1815576.38 266055.67 -12.73
1815571.70 266062.16 -12.76
1815567.03 266068.66 -12.96
1815562.36 266075.15 -12.83
1815557.68 266081.64 -12.76
1815553.01 266088.14 -12.76
1815548.34 266094.63 -12.73
1815543.67 266101.12 -12.83
1815538.99 266107.62 -12.83
1815534.32 266114.11 -12.76
1815529.65 266120.60 -13.06
1815524.97 266127.10 -12.76
1815520.30 266133.59 -12.96
1815515.63 266140.08 -12.96
1815510.96 266146.58 -12.66
1815506.28 266153.07 -12.66
1815501.61 266159.57 -12.57
1815496.94 266166.06 -12.76
1815492.26 266172.55 -12.66
1815487.59 266179.05 -12.73
1815482.92 266185.54 -12.60
1815478.25 266192.03 -12.80
1815473.57 266198.53 -12.60
1815468.90 266205.02 -12.63
1815464.23 266211.51 -12.80
1815459.55 266218.01 -12.70
1815454.88 266224.50 -12.57
1815450.21 266230.99 -12.50
1815445.54 266237.49 -12.30
1815440.86 266243.98 -12.40
1815436.19 266250.47 -12.47
1815431.52 266256.97 -12.37
1815426.84 266263.46 -12.27
1815422.17 266269.95 -12.27
1815417.50 266276.45 -12.27
1815412.83 266282.94 -12.27
1815408.15 266289.43 -12.17
1815403.48 266295.93 -12.17
1815398.81 266302.42 -12.27
1815394.13 266308.91 -12.27
1815389.46 266315.41 -12.04
1815384.79 266321.90 -12.04
1815380.12 266328.39 -12.04
1815375.44 266334.89 -12.04
1815370.77 266341.38 -12.04
1815366.10 266347.87 -11.94
1815361.42 266354.37 -11.94
1815356.75 266360.86 -11.84
1815352.08 266367.35 -11.94
1815347.41 266373.85 -12.07
1815342.73 266380.34 -11.94
1815338.06 266386.83 -12.01
1815333.39 266393.33 -11.98
1815328.71 266399.82 -12.01
1815324.04 266406.31 -12.04
1815319.37 266412.81 -11.94
1815314.70 266419.30 -11.84
1815310.02 266425.79 -11.84
1815305.35 266432.29 -11.84
1815300.68 266438.78 -11.84
1815296.00 266445.27 -11.75
1815291.33 266451.77 -11.71
1815286.66 266458.26 -11.75
1815281.99 266464.76 -11.61
1815277.31 266471.25 -11.65
1815272.64 266477.74 -11.65
1815267.97 266484.24 -11.65
1815263.29 266490.73 -11.55
1815258.62 266497.22 -11.65
1815253.95 266503.72 -11.55
1815249.28 266510.21 -11.65
1815244.60 266516.70 -11.68
1815239.93 266523.20 -11.71
1815235.26 266529.69 -11.75
1815230.58 266536.18 -11.71
1815225.91 266542.68 -11.71
1815221.24 266549.17 -11.71
1815216.57 266555.66 -11.68
1815211.89 266562.16 -11.68
1815207.22 266568.65 -11.58
1815202.55 266575.14 -11.48
1815197.87 266581.64 -11.48
1815193.20 266588.13 -11.58
1815188.53 266594.62 -11.68
1815183.86 266601.12 -11.68
1815179.18 266607.61 -11.78
1815174.51 266614.10 -11.84
1815169.84 266620.60 -11.94
1815165.16 266627.09 -11.88
1815160.49 266633.58 -12.01
1815155.82 266640.08 -11.81
1815151.15 266646.57 -11.94
1815146.47 266653.06 -11.94
1815141.80 266659.56 -11.84
1815137.13 266666.05 -11.75
1815132.45 266672.54 -11.68
1815127.78 266679.04 -11.68
1815123.11 266685.53 -11.61
1815118.44 266692.02 -11.61
1815113.76 266698.52 -11.61
1815109.09 266705.01 -11.71
1815104.42 266711.50 -11.58
1815099.74 266718.00 -11.61
1815095.07 266724.49 -11.58
1815090.40 266730.98 -11.58
1815085.73 266737.48 -11.61
1815081.05 266743.97 -11.68
1815076.38 266750.47 -11.71
1815071.71 266756.96 -11.68
1815067.03 266763.45 -11.58
1815062.36 266769.95 -11.55
1815057.69 266776.44 -11.58
1815053.02 266782.93 -11.55
1815048.34 266789.43 -11.58
1815043.67 266795.92 -11.55
1815039.00 266802.41 -11.55
1815034.32 266808.91 -11.55
1815029.65 266815.40 -11.55
1815024.98 266821.89 -11.52
1815020.31 266828.39 -11.55
1815015.63 266834.88 -11.52
1815010.96 266841.37 -11.52
1815006.29 266847.87 -11.52
1815001.61 266854.36 -11.52
1814996.94 266860.85 -11.42
1814992.27 266867.35 -11.52
1814987.60 266873.84 -11.52
1814982.92 266880.33 -11.52
1814978.25 266886.83 -11.52
1814973.58 266893.32 -11.52
1814968.90 266899.81 -11.52
1814964.23 266906.31 -11.38
1814959.56 266912.80 -11.48
1814954.89 266919.29 -11.48
1814950.21 266925.79 -11.48
1814945.54 266932.28 -11.48
1814940.87 266938.77 -11.48
1814936.19 266945.27 -11.38
1814931.52 266951.76 -11.48
1814926.85 266958.25 -11.38
1814922.18 266964.75 -11.45
1814917.50 266971.24 -11.45
1814912.83 266977.73 -11.55
1814908.16 266984.23 -11.45
1814903.48 266990.72 -11.45
1814898.81 266997.21 -11.55
1814894.14 267003.71 -11.45
1814889.47 267010.20 -11.45
1814884.79 267016.69 -11.75
1814880.12 267023.19 -11.45
1814875.45 267029.68 -11.35
1814870.77 267036.18 -11.75
1814866.10 267042.67 -11.65
1814861.43 267049.16 -11.65
1814856.75 267055.66 -11.65
1814852.08 267062.15 -11.65
1814847.41 267068.64 -11.65
1814842.74 267075.14 -11.61
1814838.06 267081.63 -11.61
1814833.39 267088.12 -11.55
1814828.72 267094.62 -11.65
1814824.04 267101.11 -11.48
1814819.37 267107.60 -11.48
1814814.70 267114.10 -11.81
1814810.03 267120.59 -11.81
1814805.35 267127.08 -12.01
1814800.68 267133.58 -11.98
1814796.01 267140.07 -12.14
1814791.33 267146.56 -12.20
1814786.66 267153.06 -12.20
1814781.99 267159.55 -12.20
1814777.32 267166.04 -12.30
1814772.64 267172.54 -12.20
1814767.97 267179.03 -12.27
1814763.30 267185.52 -12.27
1814758.62 267192.02 -12.27
1814753.95 267198.51 -12.04
1814749.28 267205.00 -11.84
1814744.61 267211.50 -12.04
1814739.93 267217.99 -12.11
1814735.26 267224.48 -12.01
1814730.59 267230.98 -12.01
1814725.91 267237.47 -11.94
1814721.24 267243.96 -11.94
1814716.57 267250.46 -11.94
1814711.90 267256.95 -11.98
1814707.22 267263.44 -11.88
1814702.55 267269.94 -11.88
1814697.88 267276.43 -11.84
1814693.20 267282.92 -11.84
1814688.53 267289.42 -11.84
1814683.86 267295.91 -11.81
1814679.19 267302.40 -11.81
1814674.51 267308.90 -11.71
1814669.84 267315.39 -11.81
1814665.17 267321.88 -11.84
1814660.49 267328.38 -11.75
1814655.82 267334.87 -11.65
1814651.15 267341.37 -11.84
1814646.48 267347.86 -11.88
1814641.80 267354.35 -11.68
1814637.13 267360.85 -11.78
1814632.46 267367.34 -11.78
1814627.78 267373.83 -11.68
1814623.11 267380.33 -12.14
1814618.44 267386.82 -11.94
1814613.77 267393.31 -11.94
1814609.09 267399.81 -11.94
1814604.42 267406.30 -12.11
1814599.75 267412.79 -11.94
1814595.07 267419.29 -11.94
1814590.40 267425.78 -11.94
1814585.73 267432.27 -12.07
1814581.06 267438.77 -12.11
1814576.38 267445.26 -12.07
1814571.71 267451.75 -12.07
1814567.04 267458.25 -11.98
1814562.36 267464.74 -12.11
1814557.69 267471.23 -12.20
1814553.02 267477.73 -12.30
1814548.35 267484.22 -12.17
1814543.67 267490.71 -12.27
1814539.00 267497.21 -12.40
1814534.33 267503.70 -12.11
1814529.65 267510.19 -11.88
1814524.98 267516.69 -12.11
1814520.31 267523.18 -12.24
1814515.64 267529.67 -12.11
1814510.96 267536.17 -12.30
1814506.29 267542.66 -11.91
1814501.62 267549.15 -11.91
1814496.94 267555.65 -12.04
1814492.27 267562.14 -11.75
1814487.60 267568.63 -11.88
1814482.93 267575.13 -12.24
1814478.25 267581.62 -12.04
1814473.58 267588.11 -12.04
1814468.91 267594.61 -11.98
1814464.23 267601.10 -11.98
1814459.56 267607.59 -12.07
1814454.89 267614.09 -12.07
1814450.22 267620.58 -12.20
1814445.54 267627.08 -12.27
1814440.87 267633.57 -12.37
1814436.20 267640.06 -12.47
1814431.52 267646.56 -12.47
1814426.85 267653.05 -12.37
1814422.18 267659.54 -12.30
1814417.51 267666.04 -12.30
1814412.83 267672.53 -12.40
1814408.16 267679.02 -12.30
1814403.49 267685.52 -12.93
1814398.81 267692.01 -12.89
1814394.14 267698.50 -12.70
1814389.47 267705.00 -12.80
1814384.80 267711.49 -12.93
1814380.12 267717.98 -12.76
1814375.45 267724.48 -12.96
1814370.78 267730.97 -12.76
1814366.10 267737.46 -12.86
1814361.43 267743.96 -12.80
1814356.76 267750.45 -12.80
1814352.09 267756.94 -12.99
1814347.41 267763.44 -13.55
1814342.74 267769.93 -13.35
1814338.07 267776.42 -13.02
1814333.39 267782.92 -13.09
1814328.72 267789.41 -13.09
1814324.05 267795.90 -13.29
1814319.38 267802.40 -13.22
1814314.70 267808.89 -13.39
1814310.03 267815.38 -13.16
1814305.36 267821.88 -13.16
1814300.68 267828.37 -13.16
1814296.01 267834.86 -13.09
1814291.34 267841.36 -13.06
1814286.67 267847.85 -13.22
1814281.99 267854.34 -13.22
1814277.32 267860.84 -13.39
1814272.65 267867.33 -13.19
1814267.97 267873.82 -13.19
1814263.30 267880.32 -13.16
1814258.63 267886.81 -13.09
1814253.96 267893.30 -13.06
1814249.28 267899.80 -13.25
1814244.61 267906.29 -13.02
1814239.94 267912.79 -13.12
1814235.26 267919.28 -13.12
1814230.59 267925.77 -13.12
1814225.92 267932.27 -13.29
1814221.25 267938.76 -13.29
1814216.57 267945.25 -13.29
1814211.90 267951.75 -13.39
1814207.23 267958.24 -13.52
1814202.55 267964.73 -13.52
1814197.88 267971.23 -13.65
1814193.21 267977.72 -13.55
1814188.54 267984.21 -13.75
1814183.86 267990.71 -13.78
1814179.19 267997.20 -13.78
1814174.52 268003.69 -13.85
1814169.84 268010.19 -13.85
1814165.17 268016.68 -13.94
1814160.50 268023.17 -14.44
1814155.83 268029.67 -14.63
1814151.15 268036.16 -14.07
1814146.48 268042.65 -14.07
1814141.81 268049.15 -13.98
1814137.13 268055.64 -14.34
1814132.46 268062.13 -14.14
1814127.79 268068.63 -14.14
1814123.12 268075.12 -14.30
1814118.44 268081.61 -14.40
1814113.77 268088.11 -14.40
1814109.10 268094.60 -14.67
1814104.42 268101.09 -14.17
1814099.75 268107.59 -14.17
1814095.08 268114.08 -14.53
1814090.41 268120.57 -14.53
1814085.73 268127.07 -14.37
1814081.06 268133.56 -14.27
1814076.39 268140.05 -14.27
1814071.71 268146.55 -14.40
1814067.04 268153.04 -14.40
1814062.37 268159.53 -14.30
1814057.70 268166.03 -14.60
1814053.02 268172.52 -14.50
1814048.35 268179.01 -14.40
1814043.68 268185.51 -14.50
1814039.00 268192.00 -14.60
1814034.33 268198.49 -14.70
1814029.66 268204.99 -14.50
1814024.99 268211.48 -14.99
1814020.31 268217.98 -14.89
1814015.64 268224.47 -14.93
1814010.97 268230.96 -15.12
1814006.29 268237.46 -15.03
1814001.62 268243.95 -14.93
1813996.95 268250.44 -14.99
1813992.28 268256.94 -14.89
1813987.60 268263.43 -14.96
1813982.93 268269.92 -14.86
1813978.26 268276.42 -14.96
1813973.58 268282.91 -14.99
1813968.91 268289.40 -14.99
1813964.24 268295.90 -14.99
1813959.57 268302.39 -14.99
1813954.89 268308.88 -14.96
1813950.22 268315.38 -15.26
1813945.55 268321.87 -14.99
1813940.87 268328.36 -15.19
1813936.20 268334.86 -15.09
1813931.53 268341.35 -15.75
1813926.86 268347.84 -15.52
1813922.18 268354.34 -15.72
1813917.51 268360.83 -15.55
1813912.84 268367.32 -15.58
1813908.16 268373.82 -15.72
1813903.49 268380.31 -15.81
1813898.82 268386.80 -15.91
1813894.14 268393.30 -16.50
1813889.47 268399.79 -15.98
1813884.80 268406.28 -15.88
1813880.13 268412.78 -15.81
1813875.45 268419.27 -15.85
1813870.78 268425.76 -15.85
1813866.11 268432.26 -16.11
1813861.43 268438.75 -15.75
1813856.76 268445.24 -15.75
1813852.09 268451.74 -15.78
1813847.42 268458.23 -16.01
1813842.74 268464.72 -16.21
1813838.07 268471.22 -16.24
1813833.40 268477.71 -16.47
1813828.72 268484.20 -16.40
1813824.05 268490.70 -16.54
1813819.38 268497.19 -16.34
1813814.71 268503.69 -16.01
1813810.03 268510.18 -16.21
1813805.36 268516.67 -16.34
1813800.69 268523.17 -16.21
1813796.01 268529.66 -16.11
1813791.34 268536.15 -16.34
1813786.67 268542.65 -16.73
1813782.00 268549.14 -16.04
1813777.32 268555.63 -16.01
1813772.65 268562.13 -16.50
1813767.98 268568.62 -16.31
1813763.30 268575.11 -16.21
1813758.63 268581.61 -16.54
1813753.96 268588.10 -16.63
1813749.29 268594.59 -16.54
1813744.61 268601.09 -16.70
1813739.94 268607.58 -16.50
1813735.27 268614.07 -16.96
1813730.59 268620.57 -16.67
1813725.92 268627.06 -16.54
1813721.25 268633.55 -16.70
1813716.58 268640.05 -16.86
1813711.90 268646.54 -17.42
1816568.84 264690.23 -10.33
1816564.17 264696.73 -10.40
1816559.50 264703.22 -10.07
1816554.83 264709.71 -9.97
1816550.15 264716.21 -9.88
1816545.48 264722.70 -9.97
1816540.81 264729.19 -9.88
1816536.13 264735.69 -9.81
1816531.46 264742.18 -9.58
1816526.79 264748.68 -9.71
1816522.12 264755.17 -9.68
1816517.44 264761.66 -9.78
1816512.77 264768.16 -9.68
1816508.10 264774.65 -9.94
1816503.42 264781.14 -9.65
1816498.75 264787.64 -9.71
1816494.08 264794.13 -9.78
1816489.41 264800.62 -9.78
1816484.73 264807.12 -9.94
1816480.06 264813.61 -9.81
1816470.71 264826.60 -9.81
1816466.04 264833.09 -9.81
1816461.37 264839.58 -9.88
1816456.70 264846.08 -9.71
1816452.02 264852.57 -9.78
1816447.35 264859.06 -9.88
1816442.68 264865.56 -9.81
1816438.00 264872.05 -9.91
1816433.33 264878.54 -10.04
1816428.66 264885.04 -9.81
1816423.98 264891.53 -9.91
1816419.31 264898.02 -9.91
1816414.64 264904.52 -9.91
1816409.97 264911.01 -10.33
1816405.29 264917.50 -10.14
1816400.62 264924.00 -10.27
1816395.95 264930.49 -10.33
1816391.27 264936.98 -10.37
1816386.60 264943.48 -10.47
1816381.93 264949.97 -10.37
1816377.26 264956.46 -10.33
1816372.58 264962.96 -10.73
1816367.91 264969.45 -10.73
1816363.24 264975.94 -10.56
1816358.56 264982.44 -10.73
1816353.89 264988.93 -10.50
1816349.22 264995.42 -10.40
1816344.55 265001.92 -10.50
1816339.87 265008.41 -10.53
1816335.20 265014.90 -10.33
1816330.53 265021.40 -10.66
1816325.85 265027.89 -10.66
1816321.18 265034.38 -10.50
1816316.51 265040.88 -10.40
1816311.84 265047.37 -10.63
1816307.16 265053.87 -10.14
1816302.49 265060.36 -10.43
1816297.82 265066.85 -10.47
1816293.14 265073.35 -10.66
1816288.47 265079.84 -10.93
1816283.80 265086.33 -10.83
1816279.13 265092.83 -10.66
1816274.45 265099.32 -10.89
1816269.78 265105.81 -10.96
1816265.11 265112.31 -11.12
1816260.43 265118.80 -11.29
1816255.76 265125.29 -11.12
1816251.09 265131.79 -11.35
1816246.42 265138.28 -11.45
1816241.74 265144.77 -11.58
1816237.07 265151.27 -11.55
1816232.40 265157.76 -11.32
1816227.72 265164.25 -11.32
1816223.05 265170.75 -11.25
1816218.38 265177.24 -11.09
1816213.71 265183.73 -11.09
1816209.03 265190.23 -11.55
1816204.36 265196.72 -11.32
1816199.69 265203.21 -11.25
1816195.01 265209.71 -11.35
1816190.34 265216.20 -11.02
1816185.67 265222.69 -11.09
1816181.00 265229.19 -11.09
1816176.32 265235.68 -11.32
1816171.65 265242.17 -11.29
1816166.98 265248.67 -11.29
1816162.30 265255.16 -11.35
1816157.63 265261.65 -11.35
1816152.96 265268.15 -11.48
1816148.29 265274.64 -11.48
1816143.61 265281.13 -11.42
1816138.94 265287.63 -11.52
1816134.27 265294.12 -11.45
1816129.59 265300.61 -11.52
1816124.92 265307.11 -11.45
1816120.25 265313.60 -11.45
1816115.58 265320.09 -11.78
1816110.90 265326.59 -11.55
1816106.23 265333.08 -11.65
1816101.56 265339.58 -11.68
1816096.88 265346.07 -11.88
1816092.21 265352.56 -11.78
1816087.54 265359.06 -11.75
1816082.87 265365.55 -11.68
1816078.19 265372.04 -11.78
1816073.52 265378.54 -11.98
1816068.85 265385.03 -11.55
1816064.17 265391.52 -11.55
1816059.50 265398.02 -11.68
1816054.83 265404.51 -11.68
1816050.16 265411.00 -11.61
1816045.48 265417.50 -11.98
1816040.81 265423.99 -11.75
1816036.14 265430.48 -11.94
1816031.46 265436.98 -11.88
1816026.79 265443.47 -11.94
1816022.12 265449.96 -12.04
1816017.45 265456.46 -12.11
1816012.77 265462.95 -11.88
1816008.10 265469.44 -11.88
1816003.43 265475.94 -11.88
1815998.75 265482.43 -12.01
1815994.08 265488.92 -12.14
1815989.41 265495.42 -12.14
1815984.74 265501.91 -12.04
1815980.06 265508.40 -12.04
1815975.39 265514.90 -12.27
1815970.72 265521.39 -12.27
1815966.04 265527.88 -12.60
1815961.37 265534.38 -12.20
1815956.70 265540.87 -12.34
1815952.03 265547.36 -12.43
1815947.35 265553.86 -12.50
1815942.68 265560.35 -12.24
1815938.01 265566.84 -12.34
1815933.33 265573.34 -12.24
1815928.66 265579.83 -12.14
1815923.99 265586.32 -12.34
1815919.32 265592.82 -12.43
1815914.64 265599.31 -12.83
1815909.97 265605.80 -12.73
1815905.30 265612.30 -12.66
1815900.62 265618.79 -12.57
1815895.95 265625.29 -12.57
1815891.28 265631.78 -12.43
1815886.61 265638.27 -12.43
1815881.93 265644.77 -12.43
1815877.26 265651.26 -12.43
1815872.59 265657.75 -12.20
1815867.91 265664.25 -12.27
1815863.24 265670.74 -12.47
1815858.57 265677.23 -12.43
1815853.90 265683.73 -12.27
1815849.22 265690.22 -12.47
1815844.55 265696.71 -12.47
1815839.88 265703.21 -12.47
1815835.20 265709.70 -12.37
1815830.53 265716.19 -12.37
1815825.86 265722.69 -12.57
1815821.19 265729.18 -12.57
1815816.51 265735.67 -12.40
1815811.84 265742.17 -12.60
1815807.17 265748.66 -12.60
1815802.49 265755.15 -12.60
1815797.82 265761.65 -12.60
1815793.15 265768.14 -12.60
1815788.48 265774.63 -12.50
1815783.80 265781.13 -12.80
1815779.13 265787.62 -12.47
1815774.46 265794.11 -12.66
1815769.78 265800.61 -12.66
1815765.11 265807.10 -12.66
1815760.44 265813.59 -12.66
1815755.77 265820.09 -12.86
1815751.09 265826.58 -12.93
1815746.42 265833.07 -12.83
1815741.75 265839.57 -12.83
1815737.07 265846.06 -12.86
1815732.40 265852.55 -12.86
1815727.73 265859.05 -12.89
1815723.06 265865.54 -12.47
1815718.38 265872.03 -12.66
1815713.71 265878.53 -12.70
1815709.04 265885.02 -12.57
1815704.36 265891.51 -12.66
1815699.69 265898.01 -12.80
1815695.02 265904.50 -12.60
1815690.35 265910.99 -12.60
1815685.67 265917.49 -12.83
1815681.00 265923.98 -12.76
1815676.33 265930.48 -12.76
1815671.65 265936.97 -12.60
1815666.98 265943.46 -12.50
1815662.31 265949.96 -12.60
1815657.64 265956.45 -12.50
1815652.96 265962.94 -12.50
1815648.29 265969.44 -12.37
1815643.62 265975.93 -12.47
1815638.94 265982.42 -12.57
1815634.27 265988.92 -12.47
1815629.60 265995.41 -12.50
1815624.93 266001.90 -12.43
1815620.25 266008.40 -12.60
1815615.58 266014.89 -12.60
1815610.91 266021.38 -12.50
1815606.23 266027.88 -12.76
1815601.56 266034.37 -12.60
1815596.89 266040.86 -12.57
1815592.22 266047.36 -12.70
1815587.54 266053.85 -12.70
1815582.87 266060.34 -12.70
1815578.20 266066.84 -12.63
1815573.52 266073.33 -12.73
1815568.85 266079.82 -12.70
1815564.18 266086.32 -12.80
1815559.51 266092.81 -12.73
1815554.83 266099.30 -12.63
1815550.16 266105.80 -12.96
1815545.49 266112.29 -12.96
1815540.81 266118.78 -12.76
1815536.14 266125.28 -12.86
1815531.47 266131.77 -12.86
1815526.80 266138.26 -12.83
1815522.12 266144.76 -12.93
1815517.45 266151.25 -12.83
1815512.78 266157.74 -12.93
1815508.10 266164.24 -13.09
1815503.43 266170.73 -12.96
1815498.76 266177.22 -12.96
1815494.09 266183.72 -13.06
1815489.41 266190.21 -13.02
1815484.74 266196.70 -13.12
1815480.07 266203.20 -12.96
1815475.39 266209.69 -13.02
1815470.72 266216.19 -12.89
1815466.05 266222.68 -12.60
1815461.37 266229.17 -12.66
1815456.70 266235.67 -12.89
1815452.03 266242.16 -12.76
1815447.36 266248.65 -12.73
1815442.68 266255.15 -12.66
1815438.01 266261.64 -12.66
1815433.34 266268.13 -12.60
1815428.66 266274.63 -12.60
1815423.99 266281.12 -12.40
1815419.32 266287.61 -12.50
1815414.65 266294.11 -12.40
1815409.97 266300.60 -12.50
1815405.30 266307.09 -12.50
1815400.63 266313.59 -12.50
1815395.95 266320.08 -12.20
1815391.28 266326.57 -12.04
1815386.61 266333.07 -12.14
1815381.94 266339.56 -12.11
1815377.26 266346.05 -12.14
1815372.59 266352.55 -12.14
1815367.92 266359.04 -12.14
1815363.24 266365.53 -12.04
1815358.57 266372.03 -12.14
1815353.90 266378.52 -12.04
1815349.23 266385.01 -12.04
1815344.55 266391.51 -12.11
1815339.88 266398.00 -12.11
1815335.21 266404.49 -12.11
1815330.53 266410.99 -12.11
1815325.86 266417.48 -12.20
1815321.19 266423.97 -12.20
1815316.52 266430.47 -12.20
1815311.84 266436.96 -12.11
1815307.17 266443.45 -12.11
1815302.50 266449.95 -11.91
1815297.82 266456.44 -12.01
1815293.15 266462.93 -11.88
1815288.48 266469.43 -11.88
1815283.81 266475.92 -11.75
1815279.13 266482.41 -11.75
1815274.46 266488.91 -11.84
1815269.79 266495.40 -11.84
1815265.11 266501.90 -11.81
1815260.44 266508.39 -11.78
1815255.77 266514.88 -11.75
1815251.10 266521.38 -11.84
1815246.42 266527.87 -11.88
1815241.75 266534.36 -11.88
1815237.08 266540.86 -11.88
1815232.40 266547.35 -11.78
1815227.73 266553.84 -11.78
1815223.06 266560.34 -11.75
1815218.39 266566.83 -11.84
1815213.71 266573.32 -11.75
1815209.04 266579.82 -11.65
1815204.37 266586.31 -11.65
1815199.69 266592.80 -11.75
1815195.02 266599.30 -11.58
1815190.35 266605.79 -11.68
1815185.68 266612.28 -11.68
1815181.00 266618.78 -11.71
1815176.33 266625.27 -11.71
1815171.66 266631.76 -11.78
1815166.98 266638.26 -11.75
1815162.31 266644.75 -11.65
1815157.64 266651.24 -11.71
1815152.97 266657.74 -11.71
1815148.29 266664.23 -11.71
1815143.62 266670.72 -11.71
1815138.95 266677.22 -11.84
1815134.27 266683.71 -11.75
1815129.60 266690.20 -11.78
1815124.93 266696.70 -11.78
1815120.26 266703.19 -11.68
1815115.58 266709.68 -11.68
1815110.91 266716.18 -11.75
1815106.24 266722.67 -11.65
1815101.56 266729.16 -11.71
1815096.89 266735.66 -11.71
1815092.22 266742.15 -11.71
1815087.55 266748.64 -11.71
1815082.87 266755.14 -11.65
1815078.20 266761.63 -11.65
1815073.53 266768.12 -11.65
1815068.85 266774.62 -11.65
1815064.18 266781.11 -11.55
1815059.51 266787.61 -11.55
1815054.84 266794.10 -11.52
1815050.16 266800.59 -11.52
1815045.49 266807.09 -11.52
1815040.82 266813.58 -11.52
1815036.14 266820.07 -11.52
1815031.47 266826.57 -11.52
1815026.80 266833.06 -11.52
1815022.13 266839.55 -11.58
1815017.45 266846.05 -11.58
1815012.78 266852.54 -11.58
1815008.11 266859.03 -11.58
1815003.43 266865.53 -11.58
1814998.76 266872.02 -11.58
1814994.09 266878.51 -11.55
1814989.42 266885.01 -11.58
1814984.74 266891.50 -11.58
1814980.07 266897.99 -11.65
1814975.40 266904.49 -11.65
1814970.72 266910.98 -11.65
1814966.05 266917.47 -11.65
1814961.38 266923.97 -11.55
1814956.71 266930.46 -11.55
1814952.03 266936.95 -11.55
1814947.36 266943.45 -11.55
1814942.69 266949.94 -11.45
1814938.01 266956.43 -11.65
1814933.34 266962.93 -11.71
1814928.67 266969.42 -11.71
1814924.00 266975.91 -11.81
1814919.32 266982.41 -11.75
1814914.65 266988.90 -11.81
1814909.98 266995.39 -11.71
1814905.30 267001.89 -11.81
1814900.63 267008.38 -11.71
1814895.96 267014.87 -11.71
1814891.29 267021.37 -11.65
1814886.61 267027.86 -11.65
1814881.94 267034.35 -11.65
1814877.27 267040.85 -11.65
1814872.59 267047.34 -11.98
1814867.92 267053.83 -11.84
1814863.25 267060.33 -11.84
1814858.58 267066.82 -11.81
1814853.90 267073.31 -11.84
1814849.23 267079.81 -11.84
1814844.56 267086.30 -12.07
1814839.88 267092.80 -11.94
1814835.21 267099.29 -11.91
1814830.54 267105.78 -11.91
1814825.87 267112.28 -12.17
1814821.19 267118.77 -12.27
1814816.52 267125.26 -11.98
1814811.85 267131.76 -12.17
1814807.17 267138.25 -12.37
1814802.50 267144.74 -12.40
1814797.83 267151.24 -12.14
1814793.16 267157.73 -12.34
1814788.48 267164.22 -12.11
1814783.81 267170.72 -12.11
1814779.14 267177.21 -12.11
1814774.46 267183.70 -12.11
1814769.79 267190.20 -12.11
1814765.12 267196.69 -12.11
1814760.45 267203.18 -12.11
1814755.77 267209.68 -12.11
1814751.10 267216.17 -12.01
1814746.43 267222.66 -12.07
1814741.75 267229.16 -12.07
1814737.08 267235.65 -12.17
1814732.41 267242.14 -11.98
1814727.74 267248.64 -11.91
1814723.06 267255.13 -12.01
1814718.39 267261.62 -12.01
1814713.72 267268.12 -11.91
1814709.04 267274.61 -11.91
1814704.37 267281.10 -11.71
1814699.70 267287.60 -11.94
1814695.03 267294.09 -11.84
1814690.35 267300.58 -11.84
1814685.68 267307.08 -11.75
1814681.01 267313.57 -11.88
1814676.33 267320.06 -11.98
1814671.66 267326.56 -11.78
1814666.99 267333.05 -11.78
1814662.32 267339.54 -11.88
1814657.64 267346.04 -12.14
1814652.97 267352.53 -12.14
1814648.30 267359.02 -12.04
1814643.62 267365.52 -11.91
1814638.95 267372.01 -12.17
1814634.28 267378.51 -11.94
1814629.61 267385.00 -11.84
1814624.93 267391.49 -11.98
1814620.26 267397.99 -11.98
1814615.59 267404.48 -12.37
1814610.91 267410.97 -12.27
1814606.24 267417.47 -12.01
1814601.57 267423.96 -12.01
1814596.90 267430.45 -12.01
1814592.22 267436.95 -12.50
1814587.55 267443.44 -12.34
1814582.88 267449.93 -12.40
1814578.20 267456.43 -12.30
1814573.53 267462.92 -12.40
1814568.86 267469.41 -12.11
1814564.19 267475.91 -12.57
1814559.51 267482.40 -11.98
1814554.84 267488.89 -12.04
1814550.17 267495.39 -12.20
1814545.49 267501.88 -12.14
1814540.82 267508.37 -12.27
1814536.15 267514.87 -12.11
1814531.48 267521.36 -12.27
1814526.80 267527.85 -12.24
1814522.13 267534.35 -12.27
1814517.46 267540.84 -12.07
1814512.78 267547.33 -11.91
1814508.11 267553.83 -12.20
1814503.44 267560.32 -12.30
1814498.76 267566.81 -12.14
1814494.09 267573.31 -12.27
1814489.42 267579.80 -12.24
1814484.75 267586.29 -12.07
1814480.07 267592.79 -12.50
1814475.40 267599.28 -12.20
1814470.73 267605.77 -12.17
1814466.05 267612.27 -12.17
1814461.38 267618.76 -12.47
1814456.71 267625.25 -12.27
1814452.04 267631.75 -12.57
1814447.36 267638.24 -12.57
1814442.69 267644.73 -12.47
1814438.02 267651.23 -12.60
1814433.34 267657.72 -12.80
1814428.67 267664.22 -12.93
1814424.00 267670.71 -12.76
1814419.33 267677.20 -12.66
1814414.65 267683.70 -12.89
1814409.98 267690.19 -12.86
1814405.31 267696.68 -13.12
1814400.63 267703.18 -12.83
1814395.96 267709.67 -13.16
1814391.29 267716.16 -13.06
1814386.62 267722.66 -12.99
1814381.94 267729.15 -13.09
1814377.27 267735.64 -13.32
1814372.60 267742.14 -13.48
1814367.92 267748.63 -13.16
1814363.25 267755.12 -13.25
1814358.58 267761.62 -13.22
1814353.91 267768.11 -13.02
1814349.23 267774.60 -13.09
1814344.56 267781.10 -13.22
1814339.89 267787.59 -13.06
1814335.21 267794.08 -13.06
1814330.54 267800.58 -13.25
1814325.87 267807.07 -13.32
1814321.20 267813.56 -13.16
1814316.52 267820.06 -13.22
1814311.85 267826.55 -13.42
1814307.18 267833.04 -13.39
1814302.50 267839.54 -13.52
1814297.83 267846.03 -13.29
1814293.16 267852.52 -13.29
1814288.49 267859.02 -13.35
1814283.81 267865.51 -13.25
1814279.14 267872.00 -13.45
1814274.47 267878.50 -12.96
1814269.79 267884.99 -13.02
1814265.12 267891.48 -13.22
1814260.45 267897.98 -13.22
1814255.78 267904.47 -13.12
1814251.10 267910.96 -13.19
1814246.43 267917.46 -13.09
1814241.76 267923.95 -13.29
1814237.08 267930.44 -13.75
1814232.41 267936.94 -13.42
1814227.74 267943.43 -13.52
1814223.07 267949.92 -13.78
1814218.39 267956.42 -13.78
1814213.72 267962.91 -13.88
1814209.05 267969.41 -13.85
1814204.37 267975.90 -13.81
1814199.70 267982.39 -13.71
1814195.03 267988.89 -14.04
1814190.36 267995.38 -14.24
1814185.68 268001.87 -14.24
1814181.01 268008.37 -14.14
1814176.34 268014.86 -13.91
1814171.66 268021.35 -14.01
